48.170000000 1.550000000 2.70956
48.170000000 1.570000000 1.78448
48.170000000 1.590000000 1.37041
48.170000000 1.610000000 0.747961
48.170000000 1.630000000 -1.45224
48.170000000 1.650000000 -1.8594
48.170000000 1.670000000 -3.85928
48.170000000 1.690000000 -4.20991
48.170000000 1.710000000 -4.7674
48.170000000 1.730000000 -5.55427
48.170000000 1.750000000 -5.64655
48.170000000 1.770000000 -6.02024
48.170000000 1.790000000 -5.92998
48.170000000 1.810000000 -5.88224
48.170000000 1.830000000 -5.81367
48.170000000 1.850000000 -5.89548
48.170000000 1.870000000 -6.16889
48.170000000 1.890000000 -6.17746
48.170000000 1.910000000 -6.12237
48.170000000 1.930000000 -6.14203
48.170000000 1.950000000 -6.23137
48.170000000 1.970000000 -6.42123
48.170000000 1.990000000 -6.5588
48.170000000 2.010000000 -6.62932
48.170000000 2.030000000 -6.50378
48.170000000 2.050000000 -6.39425
48.170000000 2.070000000 -6.4758
48.170000000 2.090000000 -6.42682
48.170000000 2.110000000 -6.7103
48.170000000 2.130000000 -7.28802
48.170000000 2.150000000 -7.30395
48.170000000 2.170000000 -6.88979
48.170000000 2.190000000 -5.73764
48.170000000 2.210000000 -5.00418
48.170000000 2.230000000 -3.58816
48.170000000 2.250000000 -2.77629
48.170000000 2.270000000 -1.99061
48.170000000 2.290000000 -1.24916
48.170000000 2.310000000 -0.351487
48.170000000 2.330000000 0.598807
48.170000000 2.350000000 0.269154
48.170000000 2.370000000 0.52612
48.170000000 2.390000000 1.48906
48.170000000 2.410000000 2.19478
48.170000000 2.430000000 1.48019
48.170000000 2.450000000 0.749545
48.170000000 2.470000000 1.54949
48.170000000 2.490000000 1.44105
48.170000000 2.510000000 2.20457
48.170000000 2.530000000 2.03653
48.170000000 2.550000000 2.95772
48.170000000 2.570000000 3.25473
48.170000000 2.590000000 3.30288
48.170000000 2.610000000 2.93342
48.170000000 2.630000000 2.50482
48.170000000 2.650000000 2.72996
48.170000000 2.670000000 2.79733
48.170000000 2.690000000 2.56505
48.170000000 2.710000000 2.97518
48.170000000 2.730000000 0.899447
48.170000000 2.750000000 0.407164
48.170000000 2.770000000 2.52679
48.170000000 2.790000000 3.49941
48.170000000 2.810000000 3.03065
48.170000000 2.830000000 2.80802
48.170000000 2.850000000 2.33986
48.170000000 2.870000000 2.45425
48.170000000 2.890000000 2.42113
48.170000000 2.910000000 2.62465
48.170000000 2.930000000 2.88337
48.170000000 2.950000000 2.96211
48.170000000 2.970000000 3.47753
48.170000000 2.990000000 3.16219
48.170000000 3.010000000 3.19992
48.170000000 3.030000000 3.11469
48.170000000 3.050000000 3.36004
48.170000000 3.070000000 3.36011
48.170000000 3.090000000 4.25203
48.170000000 3.110000000 4.87474
48.170000000 3.130000000 5.00264
48.170000000 3.150000000 6.21016
48.170000000 3.170000000 7.80341
48.170000000 3.190000000 6.79147
48.170000000 3.210000000 6.49895
48.170000000 3.230000000 4.92457
48.170000000 3.250000000 3.18978
48.170000000 3.270000000 -1.21947
48.170000000 3.290000000 -0.960486
48.170000000 3.310000000 0.391593
48.170000000 3.330000000 2.78105
48.170000000 3.350000000 1.72404
48.170000000 3.370000000 1.44494
48.170000000 3.390000000 1.37784
48.170000000 3.410000000 0.499691
48.170000000 3.430000000 1.0066
48.170000000 3.450000000 3.74271
48.170000000 3.470000000 4.43043
48.170000000 3.490000000 6.45481
48.170000000 3.510000000 8.70032
48.170000000 3.530000000 7.69743
48.170000000 3.550000000 10.7408
48.170000000 3.570000000 13.3711
48.170000000 3.590000000 12.0724
48.170000000 3.610000000 11.8561
48.170000000 3.630000000 11.1059
48.170000000 3.650000000 14.2464
48.170000000 3.670000000 11.945
48.170000000 3.690000000 14.732
48.170000000 3.710000000 15.5792
48.170000000 3.730000000 15.0729
48.170000000 3.750000000 12.7346
48.170000000 3.770000000 14.8959
48.170000000 3.790000000 14.0788
48.170000000 3.810000000 14.2657
48.170000000 3.830000000 17.6324
48.170000000 3.850000000 17.0555
48.170000000 3.870000000 18.496
48.170000000 3.890000000 17.3588
48.170000000 3.910000000 18.0945
48.170000000 3.930000000 22.0371
48.170000000 3.950000000 21.7788
48.170000000 3.970000000 20.8148
48.170000000 3.990000000 19.0109
48.170000000 4.010000000 16.2541
48.170000000 4.030000000 9.17728
48.170000000 4.050000000 6.8805
48.170000000 4.070000000 5.41451
48.170000000 4.090000000 5.40647
48.170000000 4.110000000 6.38093
48.170000000 4.130000000 7.00399
48.170000000 4.150000000 5.9413
48.170000000 4.170000000 5.70466
48.170000000 4.190000000 6.01783
48.170000000 4.210000000 6.14543
48.170000000 4.230000000 6.34137
48.170000000 4.250000000 8.06307
48.170000000 4.270000000 10.2092
48.170000000 4.290000000 11.0167
48.170000000 4.310000000 12.0638
48.170000000 4.330000000 12.2171
48.170000000 4.350000000 9.49906
48.170000000 4.370000000 11.6758
48.170000000 4.390000000 13.6331
48.170000000 4.410000000 12.4975
48.170000000 4.430000000 12.3147
48.170000000 4.450000000 11.3274
48.170000000 4.470000000 11.6184
48.170000000 4.490000000 11.7583
48.170000000 4.510000000 14.213
48.170000000 4.530000000 14.6359
48.170000000 4.550000000 15.6319
48.170000000 4.570000000 16.96
48.170000000 4.590000000 16.4606
48.170000000 4.610000000 11.205
48.170000000 4.630000000 6.76728
48.170000000 4.650000000 9.70093
48.170000000 4.670000000 9.90144
48.170000000 4.690000000 13.394
48.170000000 4.710000000 14.538
48.170000000 4.730000000 9.18642
48.170000000 4.750000000 8.24768
48.170000000 4.770000000 4.86832
48.170000000 4.790000000 1.21825
48.170000000 4.810000000 7.04105
48.170000000 4.830000000 12.1765
48.170000000 4.850000000 12.0916
48.170000000 4.870000000 7.41497
48.170000000 4.890000000 8.96063
48.170000000 4.910000000 7.91467
48.170000000 4.930000000 12.3547
48.170000000 4.950000000 17.4819
48.170000000 4.970000000 18.0144
48.170000000 4.990000000 14.154
48.170000000 5.010000000 16.4408
48.170000000 5.030000000 17.768
48.170000000 5.050000000 17.7807
48.170000000 5.070000000 14.414
48.170000000 5.090000000 9.29271
48.170000000 5.110000000 9.57301
48.170000000 5.130000000 11.7174
48.170000000 5.150000000 10.4801
48.170000000 5.170000000 13.9327
48.170000000 5.190000000 16.6402
48.170000000 5.210000000 18.4536
48.170000000 5.230000000 18.5761
48.170000000 5.250000000 18.1369
48.170000000 5.270000000 20.4477
48.170000000 5.290000000 20.8
48.170000000 5.310000000 22.7828
48.170000000 5.330000000 21.1118
48.170000000 5.350000000 17.7391
48.170000000 5.370000000 24.3193
48.170000000 5.390000000 26.4768
48.170000000 5.410000000 23.7937
48.170000000 5.430000000 25.1807
48.170000000 5.450000000 28.8772
48.170000000 5.470000000 30.8648
48.170000000 5.490000000 30.284
48.170000000 5.510000000 32.9375
48.170000000 5.530000000 31.7067
48.170000000 5.550000000 23.066
48.170000000 5.570000000 20.0753
48.170000000 5.590000000 26.5104
48.170000000 5.610000000 34.0679
48.170000000 5.630000000 25.8427
48.170000000 5.650000000 25.2157
48.170000000 5.670000000 22.4469
48.170000000 5.690000000 19.9501
48.170000000 5.710000000 20.2713
48.170000000 5.730000000 20.725
48.170000000 5.750000000 22.439
48.170000000 5.770000000 23.0927
48.170000000 5.790000000 26.6353
48.170000000 5.810000000 29.5457
48.170000000 5.830000000 33.3402
48.170000000 5.850000000 32.6852
48.170000000 5.870000000 26.594
48.170000000 5.890000000 27.1164
48.170000000 5.910000000 27.7922
48.170000000 5.930000000 29.4056
48.170000000 5.950000000 29.1414
48.170000000 5.970000000 32.8972
48.170000000 5.990000000 32.9951
48.150000000 0.010000000 18.0219
48.150000000 0.030000000 15.922
48.150000000 0.050000000 18.8948
48.150000000 0.070000000 16.8511
48.150000000 0.090000000 12.2238
48.150000000 0.110000000 9.70904
48.150000000 0.130000000 9.36407
48.150000000 0.150000000 8.74558
48.150000000 0.170000000 7.00365
48.150000000 0.190000000 7.79206
48.150000000 0.210000000 7.50718
48.150000000 0.230000000 10.218
48.150000000 0.250000000 12.6811
48.150000000 0.270000000 13.3298
48.150000000 0.290000000 13.1388
48.150000000 0.310000000 12.5846
48.150000000 0.330000000 11.904
48.150000000 0.350000000 13.1041
48.150000000 0.370000000 14.9899
48.150000000 0.390000000 15.4403
48.150000000 0.410000000 15.7057
48.150000000 0.430000000 17.2036
48.150000000 0.450000000 17.6078
48.150000000 0.470000000 17.7679
48.150000000 0.490000000 16.4998
48.150000000 0.510000000 16.9678
48.150000000 0.530000000 18.7564
48.150000000 0.550000000 18.7215
48.150000000 0.570000000 17.354
48.150000000 0.590000000 13.4876
48.150000000 0.610000000 11.875
48.150000000 0.630000000 12.7464
48.150000000 0.650000000 12.5536
48.150000000 0.670000000 13.6137
48.150000000 0.690000000 15.0026
48.150000000 0.710000000 14.1414
48.150000000 0.730000000 13.8432
48.150000000 0.750000000 18.358
48.150000000 0.770000000 17.2008
48.150000000 0.790000000 12.7719
48.150000000 0.810000000 14.7194
48.150000000 0.830000000 15.6041
48.150000000 0.850000000 15.7797
48.150000000 0.870000000 20.0317
48.150000000 0.890000000 18.7807
48.150000000 0.910000000 16.8759
48.150000000 0.930000000 16.6469
48.150000000 0.950000000 14.4844
48.150000000 0.970000000 14.0819
48.150000000 0.990000000 12.7827
48.150000000 1.010000000 10.9544
48.150000000 1.030000000 10.1591
48.150000000 1.050000000 9.26013
48.150000000 1.070000000 8.93736
48.150000000 1.090000000 9.30833
48.150000000 1.110000000 9.63357
48.150000000 1.130000000 9.60473
48.150000000 1.150000000 9.34029
48.150000000 1.170000000 8.77663
48.150000000 1.190000000 9.38869
48.150000000 1.210000000 9.28192
48.150000000 1.230000000 9.1479
48.150000000 1.250000000 7.99358
48.150000000 1.270000000 8.39122
48.150000000 1.290000000 7.28204
48.150000000 1.310000000 6.77185
48.150000000 1.330000000 6.40357
48.150000000 1.350000000 5.66321
48.150000000 1.370000000 4.56376
48.150000000 1.390000000 3.26263
48.150000000 1.410000000 3.19833
48.150000000 1.430000000 4.6798
48.150000000 1.450000000 4.45967
48.150000000 1.470000000 3.9499
48.150000000 1.490000000 3.90247
48.150000000 1.510000000 3.73423
48.150000000 1.530000000 3.98361
48.150000000 1.550000000 3.71001
48.150000000 1.570000000 2.62836
48.150000000 1.590000000 2.16771
48.150000000 1.610000000 1.16682
48.150000000 1.630000000 -0.121204
48.150000000 1.650000000 -1.33667
48.150000000 1.670000000 -2.52949
48.150000000 1.690000000 -4.31007
48.150000000 1.710000000 -4.71589
48.150000000 1.730000000 -4.71018
48.150000000 1.750000000 -4.80289
48.150000000 1.770000000 -5.29303
48.150000000 1.790000000 -5.24278
48.150000000 1.810000000 -5.58072
48.150000000 1.830000000 -5.60151
48.150000000 1.850000000 -5.64846
48.150000000 1.870000000 -5.47008
48.150000000 1.890000000 -5.45078
48.150000000 1.910000000 -5.41805
48.150000000 1.930000000 -5.59441
48.150000000 1.950000000 -5.58294
48.150000000 1.970000000 -5.79592
48.150000000 1.990000000 -5.66722
48.150000000 2.010000000 -5.8997
48.150000000 2.030000000 -5.88245
48.150000000 2.050000000 -5.9289
48.150000000 2.070000000 -5.78636
48.150000000 2.090000000 -6.07622
48.150000000 2.110000000 -6.60565
48.150000000 2.130000000 -6.65015
48.150000000 2.150000000 -6.73166
48.150000000 2.170000000 -6.74413
48.150000000 2.190000000 -5.66093
48.150000000 2.210000000 -4.00199
48.150000000 2.230000000 -3.31305
48.150000000 2.250000000 -2.94326
48.150000000 2.270000000 -1.43491
48.150000000 2.290000000 -0.503892
48.150000000 2.310000000 0.081211
48.150000000 2.330000000 0.190582
48.150000000 2.350000000 1.46578
48.150000000 2.370000000 1.34202
48.150000000 2.390000000 2.51813
48.150000000 2.410000000 2.71103
48.150000000 2.430000000 3.33577
48.150000000 2.450000000 2.80549
48.150000000 2.470000000 1.76421
48.150000000 2.490000000 1.11757
48.150000000 2.510000000 1.51609
48.150000000 2.530000000 1.93909
48.150000000 2.550000000 2.60888
48.150000000 2.570000000 2.40791
48.150000000 2.590000000 2.04159
48.150000000 2.610000000 2.01495
48.150000000 2.630000000 1.44543
48.150000000 2.650000000 1.49788
48.150000000 2.670000000 1.02895
48.150000000 2.690000000 0.892809
48.150000000 2.710000000 0.787575
48.150000000 2.730000000 1.1986
48.150000000 2.750000000 -0.615298
48.150000000 2.770000000 -0.267548
48.150000000 2.790000000 1.19095
48.150000000 2.810000000 1.57763
48.150000000 2.830000000 1.65524
48.150000000 2.850000000 1.30345
48.150000000 2.870000000 1.84175
48.150000000 2.890000000 1.60445
48.150000000 2.910000000 1.82011
48.150000000 2.930000000 1.80819
48.150000000 2.950000000 2.35057
48.150000000 2.970000000 1.93857
48.150000000 2.990000000 2.41445
48.150000000 3.010000000 2.04929
48.150000000 3.030000000 2.64353
48.150000000 3.050000000 2.59299
48.150000000 3.070000000 3.45774
48.150000000 3.090000000 3.22116
48.150000000 3.110000000 4.16528
48.150000000 3.130000000 5.15175
48.150000000 3.150000000 7.01687
48.150000000 3.170000000 7.96853
48.150000000 3.190000000 7.20025
48.150000000 3.210000000 5.70017
48.150000000 3.230000000 5.80398
48.150000000 3.250000000 3.60262
48.150000000 3.270000000 0.596217
48.150000000 3.290000000 -1.00684
48.150000000 3.310000000 0.834969
48.150000000 3.330000000 8.84773
48.150000000 3.350000000 11.2783
48.150000000 3.370000000 11.7295
48.150000000 3.390000000 8.07361
48.150000000 3.410000000 8.93026
48.150000000 3.430000000 5.28682
48.150000000 3.450000000 5.70562
48.150000000 3.470000000 8.3334
48.150000000 3.490000000 7.56837
48.150000000 3.510000000 6.8718
48.150000000 3.530000000 9.62895
48.150000000 3.550000000 12.8478
48.150000000 3.570000000 14.8494
48.150000000 3.590000000 13.4021
48.150000000 3.610000000 14.4477
48.150000000 3.630000000 12.5227
48.150000000 3.650000000 13.6173
48.150000000 3.670000000 15.446
48.150000000 3.690000000 12.843
48.150000000 3.710000000 14.126
48.150000000 3.730000000 15.3238
48.150000000 3.750000000 15.8421
48.150000000 3.770000000 17.1383
48.150000000 3.790000000 16.2934
48.150000000 3.810000000 15.0056
48.150000000 3.830000000 19.9593
48.150000000 3.850000000 20.1756
48.150000000 3.870000000 21.8271
48.150000000 3.890000000 22.6684
48.150000000 3.910000000 20.9211
48.150000000 3.930000000 21.9816
48.150000000 3.950000000 15.1854
48.150000000 3.970000000 15.3079
48.150000000 3.990000000 17.2854
48.150000000 4.010000000 12.4043
48.150000000 4.030000000 10.4495
48.150000000 4.050000000 6.64582
48.150000000 4.070000000 5.74785
48.150000000 4.090000000 6.59543
48.150000000 4.110000000 8.22746
48.150000000 4.130000000 8.5742
48.150000000 4.150000000 7.65789
48.150000000 4.170000000 7.52426
48.150000000 4.190000000 7.12489
48.150000000 4.210000000 7.23589
48.150000000 4.230000000 7.29798
48.150000000 4.250000000 7.76421
48.150000000 4.270000000 7.80742
48.150000000 4.290000000 8.22367
48.150000000 4.310000000 9.284
48.150000000 4.330000000 10.1284
48.150000000 4.350000000 12.679
48.150000000 4.370000000 12.2786
48.150000000 4.390000000 13.8541
48.150000000 4.410000000 14.4394
48.150000000 4.430000000 15.814
48.150000000 4.450000000 14.9088
48.150000000 4.470000000 15.7691
48.150000000 4.490000000 14.6998
48.150000000 4.510000000 15.9405
48.150000000 4.530000000 14.0052
48.150000000 4.550000000 13.3676
48.150000000 4.570000000 12.0737
48.150000000 4.590000000 13.6974
48.150000000 4.610000000 14.6685
48.150000000 4.630000000 9.14386
48.150000000 4.650000000 11.971
48.150000000 4.670000000 13.2509
48.150000000 4.690000000 14.494
48.150000000 4.710000000 11.431
48.150000000 4.730000000 8.9788
48.150000000 4.750000000 9.38074
48.150000000 4.770000000 7.47096
48.150000000 4.790000000 2.28213
48.150000000 4.810000000 2.03615
48.150000000 4.830000000 3.89571
48.150000000 4.850000000 3.26504
48.150000000 4.870000000 5.22128
48.150000000 4.890000000 12.779
48.150000000 4.910000000 11.6523
48.150000000 4.930000000 8.7776
48.150000000 4.950000000 7.36318
48.150000000 4.970000000 12.3328
48.150000000 4.990000000 15.4036
48.150000000 5.010000000 16.4503
48.150000000 5.030000000 18.4754
48.150000000 5.050000000 16.4271
48.150000000 5.070000000 9.94158
48.150000000 5.090000000 8.96944
48.150000000 5.110000000 11.0939
48.150000000 5.130000000 11.2982
48.150000000 5.150000000 11.5285
48.150000000 5.170000000 15.3104
48.150000000 5.190000000 16.8612
48.150000000 5.210000000 17.8526
48.150000000 5.230000000 19.4037
48.150000000 5.250000000 18.9064
48.150000000 5.270000000 18.5814
48.150000000 5.290000000 20.2788
48.150000000 5.310000000 19.7977
48.150000000 5.330000000 17.7047
48.150000000 5.350000000 14.2479
48.150000000 5.370000000 16.2412
48.150000000 5.390000000 22.2119
48.150000000 5.410000000 24.6531
48.150000000 5.430000000 22.9598
48.150000000 5.450000000 25.2336
48.150000000 5.470000000 29.2775
48.150000000 5.490000000 31.6174
48.150000000 5.510000000 28.2092
48.150000000 5.530000000 23.0316
48.150000000 5.550000000 18.7015
48.150000000 5.570000000 19.3482
48.150000000 5.590000000 22.2448
48.150000000 5.610000000 25.456
48.150000000 5.630000000 25.2965
48.150000000 5.650000000 24.5932
48.150000000 5.670000000 21.2096
48.150000000 5.690000000 20.5546
48.150000000 5.710000000 19.6289
48.150000000 5.730000000 21.8833
48.150000000 5.750000000 23.7175
48.150000000 5.770000000 26.2711
48.150000000 5.790000000 23.0276
48.150000000 5.810000000 21.2327
48.150000000 5.830000000 22.8916
48.150000000 5.850000000 27.2843
48.150000000 5.870000000 25.6335
48.150000000 5.890000000 27.0935
48.150000000 5.910000000 27.0807
48.150000000 5.930000000 29.7671
48.150000000 5.950000000 31.2187
48.150000000 5.970000000 31.9078
48.150000000 5.990000000 27.0254
48.130000000 0.010000000 20.4736
48.130000000 0.030000000 21.5004
48.130000000 0.050000000 20.6301
48.130000000 0.070000000 18.9376
48.130000000 0.090000000 15.7743
48.130000000 0.110000000 11.6826
48.130000000 0.130000000 9.88158
48.130000000 0.150000000 9.3625
48.130000000 0.170000000 7.12867
48.130000000 0.190000000 6.96099
48.130000000 0.210000000 8.43627
48.130000000 0.230000000 8.71905
48.130000000 0.250000000 12.6451
48.130000000 0.270000000 13.7533
48.130000000 0.290000000 13.3494
48.130000000 0.310000000 12.973
48.130000000 0.330000000 15.1338
48.130000000 0.350000000 15.056
48.130000000 0.370000000 14.0731
48.130000000 0.390000000 13.0444
48.130000000 0.410000000 14.2807
48.130000000 0.430000000 16.2014
48.130000000 0.450000000 16.5572
48.130000000 0.470000000 17.2237
48.130000000 0.490000000 15.8945
48.130000000 0.510000000 16.2862
48.130000000 0.530000000 17.1049
48.130000000 0.550000000 16.8323
48.130000000 0.570000000 13.3756
48.130000000 0.590000000 12.1947
48.130000000 0.610000000 13.6125
48.130000000 0.630000000 14.1574
48.130000000 0.650000000 13.0647
48.130000000 0.670000000 13.6018
48.130000000 0.690000000 13.9179
48.130000000 0.710000000 15.5641
48.130000000 0.730000000 16.7547
48.130000000 0.750000000 16.3745
48.130000000 0.770000000 14.1219
48.130000000 0.790000000 15.8557
48.130000000 0.810000000 16.8212
48.130000000 0.830000000 19.2248
48.130000000 0.850000000 21.7062
48.130000000 0.870000000 20.8104
48.130000000 0.890000000 17.8459
48.130000000 0.910000000 16.283
48.130000000 0.930000000 14.2333
48.130000000 0.950000000 13.1816
48.130000000 0.970000000 11.811
48.130000000 0.990000000 11.2064
48.130000000 1.010000000 10.1736
48.130000000 1.030000000 9.04143
48.130000000 1.050000000 7.89203
48.130000000 1.070000000 7.03172
48.130000000 1.090000000 7.07698
48.130000000 1.110000000 7.46249
48.130000000 1.130000000 7.97773
48.130000000 1.150000000 7.50446
48.130000000 1.170000000 7.05506
48.130000000 1.190000000 6.80446
48.130000000 1.210000000 6.3976
48.130000000 1.230000000 6.2431
48.130000000 1.250000000 5.75235
48.130000000 1.270000000 5.40308
48.130000000 1.290000000 4.56278
48.130000000 1.310000000 4.53979
48.130000000 1.330000000 4.72678
48.130000000 1.350000000 3.51754
48.130000000 1.370000000 2.66405
48.130000000 1.390000000 2.81264
48.130000000 1.410000000 3.3184
48.130000000 1.430000000 4.0794
48.130000000 1.450000000 3.6363
48.130000000 1.470000000 3.7267
48.130000000 1.490000000 3.89689
48.130000000 1.510000000 3.92073
48.130000000 1.530000000 3.36103
48.130000000 1.550000000 3.02527
48.130000000 1.570000000 3.11092
48.130000000 1.590000000 3.19592
48.130000000 1.610000000 3.31434
48.130000000 1.630000000 2.03641
48.130000000 1.650000000 0.365854
48.130000000 1.670000000 -1.6519
48.130000000 1.690000000 -2.51885
48.130000000 1.710000000 -4.10529
48.130000000 1.730000000 -4.6784
48.130000000 1.750000000 -4.84055
48.130000000 1.770000000 -5.60739
48.130000000 1.790000000 -5.7916
48.130000000 1.810000000 -6.34186
48.130000000 1.830000000 -6.27136
48.130000000 1.850000000 -6.29843
48.130000000 1.870000000 -6.03432
48.130000000 1.890000000 -6.1213
48.130000000 1.910000000 -5.98783
48.130000000 1.930000000 -6.16809
48.130000000 1.950000000 -5.79806
48.130000000 1.970000000 -5.57134
48.130000000 1.990000000 -5.82268
48.130000000 2.010000000 -5.48728
48.130000000 2.030000000 -5.46539
48.130000000 2.050000000 -5.53263
48.130000000 2.070000000 -5.16687
48.130000000 2.090000000 -5.1605
48.130000000 2.110000000 -5.67059
48.130000000 2.130000000 -6.24192
48.130000000 2.150000000 -6.18129
48.130000000 2.170000000 -6.22575
48.130000000 2.190000000 -5.86923
48.130000000 2.210000000 -4.6237
48.130000000 2.230000000 -3.61364
48.130000000 2.250000000 -2.4756
48.130000000 2.270000000 -1.58791
48.130000000 2.290000000 -0.755776
48.130000000 2.310000000 -0.21941
48.130000000 2.330000000 0.492519
48.130000000 2.350000000 1.55406
48.130000000 2.370000000 1.53925
48.130000000 2.390000000 2.56192
48.130000000 2.410000000 2.77234
48.130000000 2.430000000 3.54389
48.130000000 2.450000000 3.16865
48.130000000 2.470000000 2.68729
48.130000000 2.490000000 2.4688
48.130000000 2.510000000 2.04715
48.130000000 2.530000000 1.96065
48.130000000 2.550000000 1.67361
48.130000000 2.570000000 0.67688
48.130000000 2.590000000 0.750409
48.130000000 2.610000000 0.646668
48.130000000 2.630000000 0.790687
48.130000000 2.650000000 0.545497
48.130000000 2.670000000 -0.275403
48.130000000 2.690000000 -0.458023
48.130000000 2.710000000 0.779776
48.130000000 2.730000000 1.51576
48.130000000 2.750000000 -0.118296
48.130000000 2.770000000 -0.48042
48.130000000 2.790000000 1.37744
48.130000000 2.810000000 0.954138
48.130000000 2.830000000 1.73536
48.130000000 2.850000000 1.4704
48.130000000 2.870000000 0.718119
48.130000000 2.890000000 0.937444
48.130000000 2.910000000 1.2781
48.130000000 2.930000000 1.2982
48.130000000 2.950000000 1.4928
48.130000000 2.970000000 1.35543
48.130000000 2.990000000 1.49965
48.130000000 3.010000000 1.21873
48.130000000 3.030000000 1.89645
48.130000000 3.050000000 2.29659
48.130000000 3.070000000 3.69369
48.130000000 3.090000000 4.55555
48.130000000 3.110000000 4.45557
48.130000000 3.130000000 5.84001
48.130000000 3.150000000 6.77459
48.130000000 3.170000000 6.65308
48.130000000 3.190000000 4.76025
48.130000000 3.210000000 4.28124
48.130000000 3.230000000 7.29887
48.130000000 3.250000000 6.49017
48.130000000 3.270000000 4.61323
48.130000000 3.290000000 -0.111343
48.130000000 3.310000000 1.24577
48.130000000 3.330000000 8.55932
48.130000000 3.350000000 8.40865
48.130000000 3.370000000 10.6897
48.130000000 3.390000000 11.9503
48.130000000 3.410000000 12.3176
48.130000000 3.430000000 11.5221
48.130000000 3.450000000 9.69633
48.130000000 3.470000000 7.69986
48.130000000 3.490000000 7.19876
48.130000000 3.510000000 10.3089
48.130000000 3.530000000 9.80289
48.130000000 3.550000000 10.4439
48.130000000 3.570000000 12.0559
48.130000000 3.590000000 13.2159
48.130000000 3.610000000 15.9884
48.130000000 3.630000000 17.1576
48.130000000 3.650000000 16.3877
48.130000000 3.670000000 18.8851
48.130000000 3.690000000 16.8914
48.130000000 3.710000000 16.1968
48.130000000 3.730000000 17.6324
48.130000000 3.750000000 18.8138
48.130000000 3.770000000 20.2502
48.130000000 3.790000000 18.8798
48.130000000 3.810000000 19.8446
48.130000000 3.830000000 20.6172
48.130000000 3.850000000 21.9939
48.130000000 3.870000000 21.8737
48.130000000 3.890000000 17.524
48.130000000 3.910000000 22.684
48.130000000 3.930000000 17.1956
48.130000000 3.950000000 12.3853
48.130000000 3.970000000 11.1325
48.130000000 3.990000000 12.4231
48.130000000 4.010000000 9.84177
48.130000000 4.030000000 8.71813
48.130000000 4.050000000 7.28221
48.130000000 4.070000000 7.56044
48.130000000 4.090000000 8.92471
48.130000000 4.110000000 8.77233
48.130000000 4.130000000 9.08937
48.130000000 4.150000000 9.78369
48.130000000 4.170000000 9.9953
48.130000000 4.190000000 10.2713
48.130000000 4.210000000 10.3866
48.130000000 4.230000000 10.0463
48.130000000 4.250000000 12.3989
48.130000000 4.270000000 11.3577
48.130000000 4.290000000 11.8175
48.130000000 4.310000000 9.56411
48.130000000 4.330000000 11.024
48.130000000 4.350000000 8.82613
48.130000000 4.370000000 10.0179
48.130000000 4.390000000 14.0642
48.130000000 4.410000000 15.1455
48.130000000 4.430000000 16.9224
48.130000000 4.450000000 11.5867
48.130000000 4.470000000 12.0059
48.130000000 4.490000000 10.352
48.130000000 4.510000000 10.9742
48.130000000 4.530000000 9.83787
48.130000000 4.550000000 12.7385
48.130000000 4.570000000 15.1727
48.130000000 4.590000000 11.4839
48.130000000 4.610000000 12.3036
48.130000000 4.630000000 14.5172
48.130000000 4.650000000 8.94854
48.130000000 4.670000000 10.5482
48.130000000 4.690000000 12.8636
48.130000000 4.710000000 13.8692
48.130000000 4.730000000 12.6142
48.130000000 4.750000000 11.5796
48.130000000 4.770000000 10.3236
48.130000000 4.790000000 1.85843
48.130000000 4.810000000 8.75993
48.130000000 4.830000000 10.1619
48.130000000 4.850000000 12.9666
48.130000000 4.870000000 2.49197
48.130000000 4.890000000 3.63261
48.130000000 4.910000000 5.52271
48.130000000 4.930000000 11.5936
48.130000000 4.950000000 9.4966
48.130000000 4.970000000 6.26209
48.130000000 4.990000000 12.946
48.130000000 5.010000000 15.7233
48.130000000 5.030000000 18.1158
48.130000000 5.050000000 12.1353
48.130000000 5.070000000 8.51281
48.130000000 5.090000000 9.44532
48.130000000 5.110000000 11.1202
48.130000000 5.130000000 9.33498
48.130000000 5.150000000 9.09553
48.130000000 5.170000000 14.24
48.130000000 5.190000000 16.2686
48.130000000 5.210000000 16.8101
48.130000000 5.230000000 19.0564
48.130000000 5.250000000 19.416
48.130000000 5.270000000 17.6445
48.130000000 5.290000000 18.919
48.130000000 5.310000000 19.2076
48.130000000 5.330000000 19.1396
48.130000000 5.350000000 15.7351
48.130000000 5.370000000 12.4755
48.130000000 5.390000000 16.3683
48.130000000 5.410000000 18.1273
48.130000000 5.430000000 22.5074
48.130000000 5.450000000 22.8935
48.130000000 5.470000000 24.1975
48.130000000 5.490000000 28.0697
48.130000000 5.510000000 28.2162
48.130000000 5.530000000 21.2408
48.130000000 5.550000000 17.0927
48.130000000 5.570000000 18.6413
48.130000000 5.590000000 23.5615
48.130000000 5.610000000 20.4784
48.130000000 5.630000000 19.4601
48.130000000 5.650000000 20.8275
48.130000000 5.670000000 20.8579
48.130000000 5.690000000 19.9259
48.130000000 5.710000000 19.9922
48.130000000 5.730000000 23.5448
48.130000000 5.750000000 24.6367
48.130000000 5.770000000 27.1371
48.130000000 5.790000000 27.4497
48.130000000 5.810000000 29.4256
48.130000000 5.830000000 27.7455
48.130000000 5.850000000 25.7883
48.130000000 5.870000000 27.4834
48.130000000 5.890000000 28.8515
48.130000000 5.910000000 27.7407
48.130000000 5.930000000 27.0044
48.130000000 5.950000000 25.9486
48.130000000 5.970000000 26.0692
48.130000000 5.990000000 24.1503
48.110000000 0.010000000 21.3002
48.110000000 0.030000000 18.0618
48.110000000 0.050000000 17.1408
48.110000000 0.070000000 17.6012
48.110000000 0.090000000 15.5095
48.110000000 0.110000000 15.6976
48.110000000 0.130000000 14.5986
48.110000000 0.150000000 10.2727
48.110000000 0.170000000 6.86493
48.110000000 0.190000000 6.24924
48.110000000 0.210000000 8.15979
48.110000000 0.230000000 9.15541
48.110000000 0.250000000 11.787
48.110000000 0.270000000 13.1677
48.110000000 0.290000000 12.6341
48.110000000 0.310000000 12.8438
48.110000000 0.330000000 14.279
48.110000000 0.350000000 15.4113
48.110000000 0.370000000 13.1573
48.110000000 0.390000000 13.9143
48.110000000 0.410000000 15.4002
48.110000000 0.430000000 16.4243
48.110000000 0.450000000 15.6552
48.110000000 0.470000000 14.6597
48.110000000 0.490000000 14.0633
48.110000000 0.510000000 15.2506
48.110000000 0.530000000 16.5411
48.110000000 0.550000000 15.2224
48.110000000 0.570000000 12.5426
48.110000000 0.590000000 13.2318
48.110000000 0.610000000 12.769
48.110000000 0.630000000 13.7329
48.110000000 0.650000000 15.7974
48.110000000 0.670000000 16.635
48.110000000 0.690000000 14.7701
48.110000000 0.710000000 16.6761
48.110000000 0.730000000 16.408
48.110000000 0.750000000 15.0102
48.110000000 0.770000000 15.485
48.110000000 0.790000000 17.7317
48.110000000 0.810000000 17.4473
48.110000000 0.830000000 21.5942
48.110000000 0.850000000 23.0625
48.110000000 0.870000000 20.5102
48.110000000 0.890000000 17.8948
48.110000000 0.910000000 16.5229
48.110000000 0.930000000 14.8157
48.110000000 0.950000000 14.1507
48.110000000 0.970000000 13.3943
48.110000000 0.990000000 12.1129
48.110000000 1.010000000 10.8703
48.110000000 1.030000000 9.36446
48.110000000 1.050000000 7.60014
48.110000000 1.070000000 6.84598
48.110000000 1.090000000 5.73208
48.110000000 1.110000000 5.40315
48.110000000 1.130000000 5.65442
48.110000000 1.150000000 5.68287
48.110000000 1.170000000 4.65208
48.110000000 1.190000000 4.09329
48.110000000 1.210000000 3.92324
48.110000000 1.230000000 3.79631
48.110000000 1.250000000 3.37146
48.110000000 1.270000000 2.59355
48.110000000 1.290000000 2.44069
48.110000000 1.310000000 2.16972
48.110000000 1.330000000 -0.694596
48.110000000 1.350000000 -0.478318
48.110000000 1.370000000 -1.06556
48.110000000 1.390000000 -0.214708
48.110000000 1.410000000 -0.186797
48.110000000 1.430000000 0.378163
48.110000000 1.450000000 0.812495
48.110000000 1.470000000 1.23504
48.110000000 1.490000000 0.349655
48.110000000 1.510000000 0.805006
48.110000000 1.530000000 1.8605
48.110000000 1.550000000 2.26034
48.110000000 1.570000000 2.71136
48.110000000 1.590000000 2.85159
48.110000000 1.610000000 2.67492
48.110000000 1.630000000 2.28503
48.110000000 1.650000000 1.81951
48.110000000 1.670000000 0.255547
48.110000000 1.690000000 -1.15973
48.110000000 1.710000000 -2.10967
48.110000000 1.730000000 -3.91508
48.110000000 1.750000000 -4.0823
48.110000000 1.770000000 -4.70549
48.110000000 1.790000000 -5.44246
48.110000000 1.810000000 -5.88426
48.110000000 1.830000000 -6.22051
48.110000000 1.850000000 -6.62052
48.110000000 1.870000000 -6.36565
48.110000000 1.890000000 -6.44183
48.110000000 1.910000000 -6.48856
48.110000000 1.930000000 -6.3035
48.110000000 1.950000000 -5.93287
48.110000000 1.970000000 -5.71921
48.110000000 1.990000000 -5.64897
48.110000000 2.010000000 -5.28211
48.110000000 2.030000000 -4.97078
48.110000000 2.050000000 -4.74318
48.110000000 2.070000000 -4.83695
48.110000000 2.090000000 -4.44815
48.110000000 2.110000000 -5.3178
48.110000000 2.130000000 -6.01283
48.110000000 2.150000000 -6.28277
48.110000000 2.170000000 -6.49858
48.110000000 2.190000000 -5.60664
48.110000000 2.210000000 -3.86951
48.110000000 2.230000000 -3.18446
48.110000000 2.250000000 -2.46056
48.110000000 2.270000000 -1.39036
48.110000000 2.290000000 -0.482436
48.110000000 2.310000000 -0.081463
48.110000000 2.330000000 0.404349
48.110000000 2.350000000 1.86237
48.110000000 2.370000000 2.29896
48.110000000 2.390000000 3.02555
48.110000000 2.410000000 3.13472
48.110000000 2.430000000 3.73854
48.110000000 2.450000000 4.29695
48.110000000 2.470000000 4.61974
48.110000000 2.490000000 2.73607
48.110000000 2.510000000 2.09651
48.110000000 2.530000000 1.55981
48.110000000 2.550000000 0.848958
48.110000000 2.570000000 0.157152
48.110000000 2.590000000 0.101422
48.110000000 2.610000000 -0.481633
48.110000000 2.630000000 -0.66278
48.110000000 2.650000000 -0.598107
48.110000000 2.670000000 -0.187552
48.110000000 2.690000000 -0.852312
48.110000000 2.710000000 -0.222651
48.110000000 2.730000000 0.420432
48.110000000 2.750000000 0.031264
48.110000000 2.770000000 -1.35252
48.110000000 2.790000000 -0.109985
48.110000000 2.810000000 0.161104
48.110000000 2.830000000 0.288229
48.110000000 2.850000000 0.820411
48.110000000 2.870000000 0.542985
48.110000000 2.890000000 0.975604
48.110000000 2.910000000 0.912275
48.110000000 2.930000000 1.66583
48.110000000 2.950000000 1.7197
48.110000000 2.970000000 1.68944
48.110000000 2.990000000 1.62661
48.110000000 3.010000000 1.88632
48.110000000 3.030000000 2.26714
48.110000000 3.050000000 2.51991
48.110000000 3.070000000 3.14789
48.110000000 3.090000000 4.59911
48.110000000 3.110000000 5.21965
48.110000000 3.130000000 5.71105
48.110000000 3.150000000 6.83302
48.110000000 3.170000000 7.33022
48.110000000 3.190000000 4.1068
48.110000000 3.210000000 4.58643
48.110000000 3.230000000 5.35579
48.110000000 3.250000000 3.98562
48.110000000 3.270000000 -0.206803
48.110000000 3.290000000 1.2973
48.110000000 3.310000000 5.67437
48.110000000 3.330000000 10.1046
48.110000000 3.350000000 10.9823
48.110000000 3.370000000 10.317
48.110000000 3.390000000 8.95376
48.110000000 3.410000000 10.0726
48.110000000 3.430000000 13.1098
48.110000000 3.450000000 13.0831
48.110000000 3.470000000 12.6607
48.110000000 3.490000000 10.8904
48.110000000 3.510000000 10.7744
48.110000000 3.530000000 12.1565
48.110000000 3.550000000 13.7887
48.110000000 3.570000000 14.764
48.110000000 3.590000000 14.6505
48.110000000 3.610000000 17.8437
48.110000000 3.630000000 19.9487
48.110000000 3.650000000 18.852
48.110000000 3.670000000 21.4105
48.110000000 3.690000000 21.9505
48.110000000 3.710000000 22.2116
48.110000000 3.730000000 21.7314
48.110000000 3.750000000 21.3422
48.110000000 3.770000000 21.7747
48.110000000 3.790000000 21.9121
48.110000000 3.810000000 23.364
48.110000000 3.830000000 17.0475
48.110000000 3.850000000 15.9216
48.110000000 3.870000000 16.5484
48.110000000 3.890000000 13.2195
48.110000000 3.910000000 14.5486
48.110000000 3.930000000 12.7269
48.110000000 3.950000000 11.5704
48.110000000 3.970000000 9.50281
48.110000000 3.990000000 9.20073
48.110000000 4.010000000 8.50049
48.110000000 4.030000000 9.22372
48.110000000 4.050000000 9.47964
48.110000000 4.070000000 8.21523
48.110000000 4.090000000 8.95733
48.110000000 4.110000000 10.3394
48.110000000 4.130000000 9.88008
48.110000000 4.150000000 10.8349
48.110000000 4.170000000 11.628
48.110000000 4.190000000 11.4027
48.110000000 4.210000000 10.1374
48.110000000 4.230000000 12.6911
48.110000000 4.250000000 14.674
48.110000000 4.270000000 14.5544
48.110000000 4.290000000 12.5747
48.110000000 4.310000000 10.7877
48.110000000 4.330000000 13.5515
48.110000000 4.350000000 14.6887
48.110000000 4.370000000 11.5396
48.110000000 4.390000000 8.92232
48.110000000 4.410000000 14.0941
48.110000000 4.430000000 14.3653
48.110000000 4.450000000 8.50799
48.110000000 4.470000000 16.2375
48.110000000 4.490000000 16.0384
48.110000000 4.510000000 16.2155
48.110000000 4.530000000 15.8388
48.110000000 4.550000000 15.4319
48.110000000 4.570000000 14.6273
48.110000000 4.590000000 15.4103
48.110000000 4.610000000 10.3055
48.110000000 4.630000000 11.7066
48.110000000 4.650000000 12.3587
48.110000000 4.670000000 14.2945
48.110000000 4.690000000 16.1668
48.110000000 4.710000000 15.7014
48.110000000 4.730000000 14.5161
48.110000000 4.750000000 12.6796
48.110000000 4.770000000 6.54291
48.110000000 4.790000000 0.559148
48.110000000 4.810000000 6.78801
48.110000000 4.830000000 13.5377
48.110000000 4.850000000 15.3012
48.110000000 4.870000000 4.41793
48.110000000 4.890000000 2.14123
48.110000000 4.910000000 6.58125
48.110000000 4.930000000 6.52014
48.110000000 4.950000000 11.1848
48.110000000 4.970000000 8.12498
48.110000000 4.990000000 6.27942
48.110000000 5.010000000 12.8594
48.110000000 5.030000000 15.7547
48.110000000 5.050000000 9.48357
48.110000000 5.070000000 9.19216
48.110000000 5.090000000 10.1907
48.110000000 5.110000000 9.8835
48.110000000 5.130000000 10.4829
48.110000000 5.150000000 10.3625
48.110000000 5.170000000 9.44925
48.110000000 5.190000000 16.2104
48.110000000 5.210000000 17.5213
48.110000000 5.230000000 19.1523
48.110000000 5.250000000 20.6587
48.110000000 5.270000000 20.507
48.110000000 5.290000000 20.9662
48.110000000 5.310000000 20.4025
48.110000000 5.330000000 20.1075
48.110000000 5.350000000 16.4631
48.110000000 5.370000000 11.3915
48.110000000 5.390000000 14.6505
48.110000000 5.410000000 17.6965
48.110000000 5.430000000 20.7366
48.110000000 5.450000000 23.4866
48.110000000 5.470000000 24.8169
48.110000000 5.490000000 27.0054
48.110000000 5.510000000 23.0386
48.110000000 5.530000000 16.8794
48.110000000 5.550000000 13.8129
48.110000000 5.570000000 14.0409
48.110000000 5.590000000 16.1256
48.110000000 5.610000000 19.1645
48.110000000 5.630000000 19.6991
48.110000000 5.650000000 20.426
48.110000000 5.670000000 21.0543
48.110000000 5.690000000 21.013
48.110000000 5.710000000 18.5575
48.110000000 5.730000000 19.9702
48.110000000 5.750000000 23.6458
48.110000000 5.770000000 26.8398
48.110000000 5.790000000 22.8725
48.110000000 5.810000000 23.1067
48.110000000 5.830000000 22.5953
48.110000000 5.850000000 25.3162
48.110000000 5.870000000 26.4083
48.110000000 5.890000000 27.2586
48.110000000 5.910000000 24.0161
48.110000000 5.930000000 20.4334
48.110000000 5.950000000 22.0538
48.110000000 5.970000000 23.7744
48.110000000 5.990000000 23.4261
48.090000000 0.010000000 21.8348
48.090000000 0.030000000 19.7599
48.090000000 0.050000000 19.7778
48.090000000 0.070000000 16.8726
48.090000000 0.090000000 14.6501
48.090000000 0.110000000 12.7493
48.090000000 0.130000000 10.8466
48.090000000 0.150000000 10.418
48.090000000 0.170000000 8.51292
48.090000000 0.190000000 5.69277
48.090000000 0.210000000 7.28516
48.090000000 0.230000000 10.7523
48.090000000 0.250000000 12.0802
48.090000000 0.270000000 11.0615
48.090000000 0.290000000 12.098
48.090000000 0.310000000 12.1848
48.090000000 0.330000000 12.5514
48.090000000 0.350000000 12.3059
48.090000000 0.370000000 12.3183
48.090000000 0.390000000 13.3878
48.090000000 0.410000000 15.0883
48.090000000 0.430000000 17.2823
48.090000000 0.450000000 15.2585
48.090000000 0.470000000 14.4742
48.090000000 0.490000000 14.0947
48.090000000 0.510000000 14.2972
48.090000000 0.530000000 14.2889
48.090000000 0.550000000 15.8602
48.090000000 0.570000000 16.2253
48.090000000 0.590000000 15.9243
48.090000000 0.610000000 14.9309
48.090000000 0.630000000 14.3636
48.090000000 0.650000000 15.2939
48.090000000 0.670000000 17.8329
48.090000000 0.690000000 19.2106
48.090000000 0.710000000 18.1578
48.090000000 0.730000000 15.4756
48.090000000 0.750000000 13.8482
48.090000000 0.770000000 13.7203
48.090000000 0.790000000 14.94
48.090000000 0.810000000 18.4459
48.090000000 0.830000000 18.7399
48.090000000 0.850000000 15.9146
48.090000000 0.870000000 15.4515
48.090000000 0.890000000 15.6811
48.090000000 0.910000000 15.2069
48.090000000 0.930000000 12.6596
48.090000000 0.950000000 14.1839
48.090000000 0.970000000 13.2461
48.090000000 0.990000000 14.1655
48.090000000 1.010000000 13.3102
48.090000000 1.030000000 9.87682
48.090000000 1.050000000 8.11319
48.090000000 1.070000000 6.83558
48.090000000 1.090000000 5.70898
48.090000000 1.110000000 4.62278
48.090000000 1.130000000 4.34827
48.090000000 1.150000000 4.45334
48.090000000 1.170000000 3.025
48.090000000 1.190000000 2.4921
48.090000000 1.210000000 2.49402
48.090000000 1.230000000 2.89581
48.090000000 1.250000000 2.20655
48.090000000 1.270000000 1.54521
48.090000000 1.290000000 1.09292
48.090000000 1.310000000 0.370003
48.090000000 1.330000000 -1.84728
48.090000000 1.350000000 -0.873782
48.090000000 1.370000000 -2.17205
48.090000000 1.390000000 -2.78707
48.090000000 1.410000000 -2.43235
48.090000000 1.430000000 -1.93847
48.090000000 1.450000000 -2.00608
48.090000000 1.470000000 -1.7363
48.090000000 1.490000000 -0.993168
48.090000000 1.510000000 -2.03797
48.090000000 1.530000000 -1.09064
48.090000000 1.550000000 -0.684628
48.090000000 1.570000000 -0.126794
48.090000000 1.590000000 0.515838
48.090000000 1.610000000 0.605087
48.090000000 1.630000000 0.749666
48.090000000 1.650000000 0.572969
48.090000000 1.670000000 0.322682
48.090000000 1.690000000 0.105376
48.090000000 1.710000000 -1.89903
48.090000000 1.730000000 -1.84719
48.090000000 1.750000000 -3.28499
48.090000000 1.770000000 -4.42485
48.090000000 1.790000000 -4.92844
48.090000000 1.810000000 -5.30516
48.090000000 1.830000000 -5.56111
48.090000000 1.850000000 -6.15578
48.090000000 1.870000000 -6.47474
48.090000000 1.890000000 -6.59718
48.090000000 1.910000000 -6.63017
48.090000000 1.930000000 -6.37399
48.090000000 1.950000000 -5.96419
48.090000000 1.970000000 -5.78869
48.090000000 1.990000000 -5.62212
48.090000000 2.010000000 -4.9737
48.090000000 2.030000000 -4.54861
48.090000000 2.050000000 -4.18409
48.090000000 2.070000000 -4.05412
48.090000000 2.090000000 -4.28203
48.090000000 2.110000000 -5.05409
48.090000000 2.130000000 -5.30889
48.090000000 2.150000000 -5.38732
48.090000000 2.170000000 -4.92729
48.090000000 2.190000000 -4.4578
48.090000000 2.210000000 -3.65059
48.090000000 2.230000000 -2.55506
48.090000000 2.250000000 -1.21196
48.090000000 2.270000000 -0.875714
48.090000000 2.290000000 -0.245883
48.090000000 2.310000000 0.036142
48.090000000 2.330000000 1.72449
48.090000000 2.350000000 2.91127
48.090000000 2.370000000 2.96444
48.090000000 2.390000000 3.72266
48.090000000 2.410000000 4.04422
48.090000000 2.430000000 4.74059
48.090000000 2.450000000 4.72332
48.090000000 2.470000000 3.46637
48.090000000 2.490000000 2.92098
48.090000000 2.510000000 2.4143
48.090000000 2.530000000 1.78449
48.090000000 2.550000000 0.792109
48.090000000 2.570000000 0.202026
48.090000000 2.590000000 -0.184283
48.090000000 2.610000000 -0.448897
48.090000000 2.630000000 -0.570798
48.090000000 2.650000000 0.053571
48.090000000 2.670000000 -0.608773
48.090000000 2.690000000 -1.00938
48.090000000 2.710000000 -0.66189
48.090000000 2.730000000 -0.599228
48.090000000 2.750000000 -0.416425
48.090000000 2.770000000 -1.85156
48.090000000 2.790000000 -1.25344
48.090000000 2.810000000 -0.479989
48.090000000 2.830000000 -0.705657
48.090000000 2.850000000 -0.183264
48.090000000 2.870000000 0.509055
48.090000000 2.890000000 0.785231
48.090000000 2.910000000 1.07167
48.090000000 2.930000000 1.41617
48.090000000 2.950000000 1.72611
48.090000000 2.970000000 1.08533
48.090000000 2.990000000 1.79136
48.090000000 3.010000000 2.63764
48.090000000 3.030000000 2.87252
48.090000000 3.050000000 3.5102
48.090000000 3.070000000 5.05231
48.090000000 3.090000000 5.67417
48.090000000 3.110000000 5.48583
48.090000000 3.130000000 6.04122
48.090000000 3.150000000 7.33345
48.090000000 3.170000000 6.79186
48.090000000 3.190000000 7.09027
48.090000000 3.210000000 6.35771
48.090000000 3.230000000 4.4758
48.090000000 3.250000000 4.59773
48.090000000 3.270000000 1.23679
48.090000000 3.290000000 0.184281
48.090000000 3.310000000 3.91637
48.090000000 3.330000000 6.78803
48.090000000 3.350000000 7.08117
48.090000000 3.370000000 7.11612
48.090000000 3.390000000 7.61796
48.090000000 3.410000000 7.62956
48.090000000 3.430000000 11.0287
48.090000000 3.450000000 11.9915
48.090000000 3.470000000 11.4098
48.090000000 3.490000000 12.3381
48.090000000 3.510000000 13.1645
48.090000000 3.530000000 13.905
48.090000000 3.550000000 15.1634
48.090000000 3.570000000 16.8133
48.090000000 3.590000000 17.3379
48.090000000 3.610000000 19.8049
48.090000000 3.630000000 22.2419
48.090000000 3.650000000 21.0386
48.090000000 3.670000000 18.634
48.090000000 3.690000000 16.1896
48.090000000 3.710000000 16.5235
48.090000000 3.730000000 22.2897
48.090000000 3.750000000 21.4772
48.090000000 3.770000000 15.107
48.090000000 3.790000000 16.4163
48.090000000 3.810000000 19.4123
48.090000000 3.830000000 13.4667
48.090000000 3.850000000 12.3363
48.090000000 3.870000000 12.5908
48.090000000 3.890000000 11.496
48.090000000 3.910000000 10.8325
48.090000000 3.930000000 10.43
48.090000000 3.950000000 9.72078
48.090000000 3.970000000 8.87778
48.090000000 3.990000000 10.5378
48.090000000 4.010000000 8.8761
48.090000000 4.030000000 9.22112
48.090000000 4.050000000 11.0644
48.090000000 4.070000000 8.15275
48.090000000 4.090000000 9.27902
48.090000000 4.110000000 8.16053
48.090000000 4.130000000 8.61881
48.090000000 4.150000000 10.1869
48.090000000 4.170000000 12.5207
48.090000000 4.190000000 12.9202
48.090000000 4.210000000 10.9264
48.090000000 4.230000000 13.5125
48.090000000 4.250000000 16.4416
48.090000000 4.270000000 16.0642
48.090000000 4.290000000 12.9182
48.090000000 4.310000000 12.4729
48.090000000 4.330000000 15.3884
48.090000000 4.350000000 17.0058
48.090000000 4.370000000 12.21
48.090000000 4.390000000 6.07547
48.090000000 4.410000000 6.10407
48.090000000 4.430000000 9.14625
48.090000000 4.450000000 9.44366
48.090000000 4.470000000 10.6394
48.090000000 4.490000000 11.0821
48.090000000 4.510000000 13.002
48.090000000 4.530000000 13.378
48.090000000 4.550000000 9.00215
48.090000000 4.570000000 13.5292
48.090000000 4.590000000 15.7375
48.090000000 4.610000000 12.6032
48.090000000 4.630000000 13.2291
48.090000000 4.650000000 15.0672
48.090000000 4.670000000 14.9709
48.090000000 4.690000000 16.9161
48.090000000 4.710000000 17.5363
48.090000000 4.730000000 13.6495
48.090000000 4.750000000 9.93781
48.090000000 4.770000000 4.00863
48.090000000 4.790000000 2.46104
48.090000000 4.810000000 5.71502
48.090000000 4.830000000 5.08668
48.090000000 4.850000000 10.9587
48.090000000 4.870000000 7.76433
48.090000000 4.890000000 1.14655
48.090000000 4.910000000 1.59127
48.090000000 4.930000000 4.43989
48.090000000 4.950000000 6.79102
48.090000000 4.970000000 7.52518
48.090000000 4.990000000 6.24562
48.090000000 5.010000000 7.32804
48.090000000 5.030000000 9.46624
48.090000000 5.050000000 9.81417
48.090000000 5.070000000 10.3443
48.090000000 5.090000000 10.4813
48.090000000 5.110000000 10.844
48.090000000 5.130000000 10.6711
48.090000000 5.150000000 11.0521
48.090000000 5.170000000 9.64351
48.090000000 5.190000000 15.722
48.090000000 5.210000000 16.3293
48.090000000 5.230000000 16.9706
48.090000000 5.250000000 17.7127
48.090000000 5.270000000 18.0283
48.090000000 5.290000000 18.9406
48.090000000 5.310000000 18.7185
48.090000000 5.330000000 19.7319
48.090000000 5.350000000 16.1332
48.090000000 5.370000000 13.1793
48.090000000 5.390000000 14.4475
48.090000000 5.410000000 15.9104
48.090000000 5.430000000 16.4679
48.090000000 5.450000000 18.0428
48.090000000 5.470000000 20.2764
48.090000000 5.490000000 22.825
48.090000000 5.510000000 20.0397
48.090000000 5.530000000 14.3801
48.090000000 5.550000000 13.68
48.090000000 5.570000000 16.7908
48.090000000 5.590000000 14.5143
48.090000000 5.610000000 15.2831
48.090000000 5.630000000 17.9672
48.090000000 5.650000000 20.123
48.090000000 5.670000000 21.0629
48.090000000 5.690000000 21.5418
48.090000000 5.710000000 19.7746
48.090000000 5.730000000 21.7077
48.090000000 5.750000000 19.064
48.090000000 5.770000000 18.3067
48.090000000 5.790000000 20.8783
48.090000000 5.810000000 20.8498
48.090000000 5.830000000 22.39
48.090000000 5.850000000 24.8405
48.090000000 5.870000000 23.7068
48.090000000 5.890000000 19.8876
48.090000000 5.910000000 16.8913
48.090000000 5.930000000 16.6279
48.090000000 5.950000000 19.5882
48.090000000 5.970000000 19.3911
48.090000000 5.990000000 17.8134
48.070000000 0.010000000 18.1683
48.070000000 0.030000000 19.206
48.070000000 0.050000000 15.3978
48.070000000 0.070000000 13.4429
48.070000000 0.090000000 11.4395
48.070000000 0.110000000 10.0478
48.070000000 0.130000000 8.3476
48.070000000 0.150000000 7.70778
48.070000000 0.170000000 7.40086
48.070000000 0.190000000 4.9401
48.070000000 0.210000000 5.62463
48.070000000 0.230000000 9.41771
48.070000000 0.250000000 13.8483
48.070000000 0.270000000 12.2335
48.070000000 0.290000000 11.4487
48.070000000 0.310000000 11.4589
48.070000000 0.330000000 12.2116
48.070000000 0.350000000 12.2199
48.070000000 0.370000000 12.3494
48.070000000 0.390000000 13.2344
48.070000000 0.410000000 14.4786
48.070000000 0.430000000 15.7018
48.070000000 0.450000000 15.6957
48.070000000 0.470000000 13.2439
48.070000000 0.490000000 12.1353
48.070000000 0.510000000 13.0853
