46.190000000 2.510000000 426.81
46.190000000 2.530000000 377.77
46.190000000 2.550000000 432.62
46.190000000 2.570000000 451.62
46.190000000 2.590000000 460.60
46.190000000 2.610000000 475.18
46.190000000 2.630000000 479.87
46.190000000 2.650000000 475.81
46.190000000 2.670000000 477.49
46.190000000 2.690000000 491.98
46.190000000 2.710000000 517.80
46.190000000 2.730000000 529.66
46.190000000 2.750000000 551.71
46.190000000 2.770000000 578.05
46.190000000 2.790000000 608.76
46.190000000 2.810000000 596.37
46.190000000 2.830000000 552.06
46.190000000 2.850000000 521.53
46.190000000 2.870000000 504.79
46.190000000 2.890000000 490.63
46.190000000 2.910000000 508.07
46.190000000 2.930000000 558.32
46.190000000 2.950000000 634.16
46.190000000 2.970000000 664.50
46.190000000 2.990000000 611.15
46.170000000 2.010000000 433.54
46.170000000 2.030000000 465.89
46.170000000 2.050000000 515.28
46.170000000 2.070000000 512.78
46.170000000 2.090000000 502.36
46.170000000 2.110000000 478.16
46.170000000 2.130000000 456.40
46.170000000 2.150000000 449.48
46.170000000 2.170000000 443.56
46.170000000 2.190000000 407.33
46.170000000 2.210000000 394.09
46.170000000 2.230000000 393.57
46.170000000 2.250000000 396.50
46.170000000 2.270000000 391.49
46.170000000 2.290000000 384.92
46.170000000 2.310000000 381.88
46.170000000 2.330000000 404.94
46.170000000 2.350000000 429.11
46.170000000 2.370000000 406.78
46.170000000 2.390000000 405.47
46.170000000 2.410000000 411.63
46.170000000 2.430000000 445.70
46.170000000 2.450000000 447.44
46.170000000 2.470000000 440.53
46.170000000 2.490000000 448.67
46.170000000 2.510000000 439.11
46.170000000 2.530000000 440.25
46.170000000 2.550000000 403.58
46.170000000 2.570000000 411.26
46.170000000 2.590000000 430.16
46.170000000 2.610000000 438.66
46.170000000 2.630000000 462.28
46.170000000 2.650000000 476.77
46.170000000 2.670000000 506.47
46.170000000 2.690000000 512.12
46.170000000 2.710000000 514.44
46.170000000 2.730000000 525.16
46.170000000 2.750000000 551.99
46.170000000 2.770000000 588.11
46.170000000 2.790000000 640.24
46.170000000 2.810000000 614.72
46.170000000 2.830000000 543.52
46.170000000 2.850000000 494.92
46.170000000 2.870000000 532.91
46.170000000 2.890000000 543.42
46.170000000 2.910000000 555.42
46.170000000 2.930000000 614.43
46.170000000 2.950000000 697.70
46.170000000 2.970000000 674.34
46.170000000 2.990000000 607.96
46.150000000 2.010000000 385.12
46.150000000 2.030000000 427.99
46.150000000 2.050000000 457.87
46.150000000 2.070000000 475.23
46.150000000 2.090000000 512.32
46.150000000 2.110000000 499.71
46.150000000 2.130000000 472.43
46.150000000 2.150000000 462.51
46.150000000 2.170000000 461.88
46.150000000 2.190000000 438.09
46.150000000 2.210000000 406.88
46.150000000 2.230000000 395.46
46.150000000 2.250000000 413.51
46.150000000 2.270000000 420.18
46.150000000 2.290000000 407.66
46.150000000 2.310000000 396.15
46.150000000 2.330000000 414.70
46.150000000 2.350000000 416.60
46.150000000 2.370000000 442.78
46.150000000 2.390000000 457.36
46.150000000 2.410000000 450.55
46.150000000 2.430000000 483.63
46.150000000 2.450000000 473.02
46.150000000 2.470000000 460.10
46.150000000 2.490000000 483.17
46.150000000 2.510000000 467.33
46.150000000 2.530000000 483.81
46.150000000 2.550000000 473.73
46.150000000 2.570000000 441.82
46.150000000 2.590000000 505.15
46.150000000 2.610000000 498.53
46.150000000 2.630000000 489.99
46.150000000 2.650000000 473.60
46.150000000 2.670000000 494.13
46.150000000 2.690000000 515.69
46.150000000 2.710000000 528.26
46.150000000 2.730000000 541.83
46.150000000 2.750000000 572.62
46.150000000 2.770000000 627.86
46.150000000 2.790000000 672.94
46.150000000 2.810000000 597.95
46.150000000 2.830000000 513.91
46.150000000 2.850000000 564.46
46.150000000 2.870000000 589.76
46.150000000 2.890000000 590.39
46.150000000 2.910000000 597.13
46.150000000 2.930000000 606.09
46.150000000 2.950000000 579.22
46.150000000 2.970000000 588.36
46.150000000 2.990000000 559.83
46.130000000 2.010000000 393.49
46.130000000 2.030000000 401.59
46.130000000 2.050000000 432.15
46.130000000 2.070000000 456.15
46.130000000 2.090000000 484.01
46.130000000 2.110000000 503.21
46.130000000 2.130000000 509.94
46.130000000 2.150000000 493.62
46.130000000 2.170000000 492.61
46.130000000 2.190000000 481.52
46.130000000 2.210000000 444.26
46.130000000 2.230000000 413.53
46.130000000 2.250000000 410.29
46.130000000 2.270000000 435.13
46.130000000 2.290000000 457.36
46.130000000 2.310000000 434.40
46.130000000 2.330000000 418.75
46.130000000 2.350000000 455.28
46.130000000 2.370000000 477.20
46.130000000 2.390000000 474.97
46.130000000 2.410000000 480.42
46.130000000 2.430000000 504.54
46.130000000 2.450000000 479.20
46.130000000 2.470000000 489.00
46.130000000 2.490000000 496.62
46.130000000 2.510000000 502.77
46.130000000 2.530000000 503.19
46.130000000 2.550000000 461.54
46.130000000 2.570000000 480.12
46.130000000 2.590000000 472.20
46.130000000 2.610000000 486.27
46.130000000 2.630000000 525.01
46.130000000 2.650000000 533.92
46.130000000 2.670000000 535.79
46.130000000 2.690000000 570.80
46.130000000 2.710000000 578.85
46.130000000 2.730000000 620.46
46.130000000 2.750000000 636.89
46.130000000 2.770000000 680.07
46.130000000 2.790000000 672.26
46.130000000 2.810000000 565.13
46.130000000 2.830000000 582.62
46.130000000 2.850000000 643.79
46.130000000 2.870000000 593.88
46.130000000 2.890000000 545.73
46.130000000 2.910000000 554.53
46.130000000 2.930000000 555.86
46.130000000 2.950000000 507.04
46.130000000 2.970000000 473.47
46.130000000 2.990000000 471.57
46.110000000 2.010000000 430.12
46.110000000 2.030000000 409.62
46.110000000 2.050000000 380.17
46.110000000 2.070000000 425.09
46.110000000 2.090000000 444.03
46.110000000 2.110000000 468.82
46.110000000 2.130000000 516.93
46.110000000 2.150000000 535.60
46.110000000 2.170000000 515.13
46.110000000 2.190000000 499.39
46.110000000 2.210000000 486.33
46.110000000 2.230000000 458.41
46.110000000 2.250000000 433.47
46.110000000 2.270000000 435.63
46.110000000 2.290000000 468.89
46.110000000 2.310000000 441.10
46.110000000 2.330000000 456.43
46.110000000 2.350000000 486.11
46.110000000 2.370000000 505.60
46.110000000 2.390000000 508.04
46.110000000 2.410000000 518.18
46.110000000 2.430000000 533.63
46.110000000 2.450000000 497.85
46.110000000 2.470000000 521.23
46.110000000 2.490000000 528.11
46.110000000 2.510000000 509.05
46.110000000 2.530000000 474.95
46.110000000 2.550000000 451.12
46.110000000 2.570000000 470.66
46.110000000 2.590000000 528.02
46.110000000 2.610000000 551.41
46.110000000 2.630000000 531.26
46.110000000 2.650000000 526.28
46.110000000 2.670000000 542.10
46.110000000 2.690000000 543.01
46.110000000 2.710000000 552.11
46.110000000 2.730000000 639.39
46.110000000 2.750000000 658.81
46.110000000 2.770000000 692.85
46.110000000 2.790000000 684.35
46.110000000 2.810000000 579.42
46.110000000 2.830000000 644.14
46.110000000 2.850000000 618.65
46.110000000 2.870000000 592.16
46.110000000 2.890000000 534.57
46.110000000 2.910000000 457.39
46.110000000 2.930000000 465.36
46.110000000 2.950000000 445.94
46.110000000 2.970000000 524.28
46.110000000 2.990000000 509.14
46.090000000 2.010000000 448.11
46.090000000 2.030000000 445.03
46.090000000 2.050000000 407.16
46.090000000 2.070000000 370.00
46.090000000 2.090000000 430.20
46.090000000 2.110000000 494.08
46.090000000 2.130000000 511.24
46.090000000 2.150000000 544.76
46.090000000 2.170000000 539.84
46.090000000 2.190000000 518.51
46.090000000 2.210000000 510.57
46.090000000 2.230000000 495.17
46.090000000 2.250000000 464.79
46.090000000 2.270000000 432.31
46.090000000 2.290000000 465.48
46.090000000 2.310000000 458.19
46.090000000 2.330000000 496.04
46.090000000 2.350000000 509.10
46.090000000 2.370000000 520.12
46.090000000 2.390000000 549.53
46.090000000 2.410000000 566.25
46.090000000 2.430000000 557.86
46.090000000 2.450000000 517.72
46.090000000 2.470000000 561.15
46.090000000 2.490000000 547.97
46.090000000 2.510000000 503.23
46.090000000 2.530000000 476.97
46.090000000 2.550000000 468.96
46.090000000 2.570000000 538.42
46.090000000 2.590000000 521.16
46.090000000 2.610000000 524.17
46.090000000 2.630000000 550.24
46.090000000 2.650000000 562.35
46.090000000 2.670000000 584.11
46.090000000 2.690000000 576.41
46.090000000 2.710000000 584.14
46.090000000 2.730000000 671.39
46.090000000 2.750000000 732.97
46.090000000 2.770000000 723.04
46.090000000 2.790000000 649.61
46.090000000 2.810000000 665.67
46.090000000 2.830000000 672.21
46.090000000 2.850000000 618.74
46.090000000 2.870000000 557.77
46.090000000 2.890000000 548.15
46.090000000 2.910000000 493.11
46.090000000 2.930000000 452.91
46.090000000 2.950000000 528.42
46.090000000 2.970000000 597.05
46.090000000 2.990000000 561.34
46.070000000 2.010000000 497.81
46.070000000 2.030000000 488.61
46.070000000 2.050000000 459.13
46.070000000 2.070000000 416.59
46.070000000 2.090000000 400.48
46.070000000 2.110000000 450.79
46.070000000 2.130000000 494.99
46.070000000 2.150000000 529.22
46.070000000 2.170000000 559.03
46.070000000 2.190000000 547.17
46.070000000 2.210000000 528.37
46.070000000 2.230000000 504.06
46.070000000 2.250000000 475.38
46.070000000 2.270000000 463.74
46.070000000 2.290000000 486.74
46.070000000 2.310000000 453.33
46.070000000 2.330000000 491.11
46.070000000 2.350000000 554.52
46.070000000 2.370000000 543.74
46.070000000 2.390000000 568.99
46.070000000 2.410000000 614.71
46.070000000 2.430000000 583.39
46.070000000 2.450000000 551.66
46.070000000 2.470000000 565.02
46.070000000 2.490000000 570.04
46.070000000 2.510000000 528.04
46.070000000 2.530000000 502.04
46.070000000 2.550000000 512.73
46.070000000 2.570000000 532.66
46.070000000 2.590000000 577.56
46.070000000 2.610000000 574.09
46.070000000 2.630000000 564.77
46.070000000 2.650000000 598.75
46.070000000 2.670000000 609.42
46.070000000 2.690000000 646.94
46.070000000 2.710000000 688.87
46.070000000 2.730000000 735.50
46.070000000 2.750000000 713.77
46.070000000 2.770000000 670.28
46.070000000 2.790000000 644.71
46.070000000 2.810000000 670.67
46.070000000 2.830000000 667.20
46.070000000 2.850000000 681.47
46.070000000 2.870000000 579.32
46.070000000 2.890000000 512.79
46.070000000 2.910000000 460.79
46.070000000 2.930000000 517.25
46.070000000 2.950000000 585.66
46.070000000 2.970000000 625.50
46.070000000 2.990000000 627.25
46.050000000 2.010000000 536.29
46.050000000 2.030000000 525.15
46.050000000 2.050000000 485.89
46.050000000 2.070000000 450.38
46.050000000 2.090000000 406.55
46.050000000 2.110000000 386.46
46.050000000 2.130000000 445.83
46.050000000 2.150000000 522.68
46.050000000 2.170000000 559.36
46.050000000 2.190000000 563.98
46.050000000 2.210000000 523.73
46.050000000 2.230000000 510.21
46.050000000 2.250000000 503.01
46.050000000 2.270000000 508.58
46.050000000 2.290000000 494.56
46.050000000 2.310000000 473.04
46.050000000 2.330000000 496.90
46.050000000 2.350000000 536.43
46.050000000 2.370000000 583.10
46.050000000 2.390000000 575.89
46.050000000 2.410000000 620.23
46.050000000 2.430000000 640.68
46.050000000 2.450000000 597.59
46.050000000 2.470000000 605.10
46.050000000 2.490000000 563.19
46.050000000 2.510000000 530.75
46.050000000 2.530000000 530.87
46.050000000 2.550000000 542.32
46.050000000 2.570000000 525.00
46.050000000 2.590000000 569.06
46.050000000 2.610000000 614.29
46.050000000 2.630000000 638.26
46.050000000 2.650000000 636.35
46.050000000 2.670000000 673.56
46.050000000 2.690000000 694.60
46.050000000 2.710000000 707.23
46.050000000 2.730000000 680.55
46.050000000 2.750000000 688.51
46.050000000 2.770000000 644.21
46.050000000 2.790000000 644.00
46.050000000 2.810000000 679.35
46.050000000 2.830000000 691.09
46.050000000 2.850000000 675.06
46.050000000 2.870000000 597.20
46.050000000 2.890000000 530.65
46.050000000 2.910000000 480.63
46.050000000 2.930000000 557.03
46.050000000 2.950000000 602.07
46.050000000 2.970000000 597.69
46.050000000 2.990000000 594.11
46.030000000 2.010000000 558.47
46.030000000 2.030000000 561.70
46.030000000 2.050000000 532.35
46.030000000 2.070000000 488.53
46.030000000 2.090000000 468.24
46.030000000 2.110000000 430.23
46.030000000 2.130000000 425.63
46.030000000 2.150000000 478.74
46.030000000 2.170000000 523.18
46.030000000 2.190000000 560.70
46.030000000 2.210000000 563.81
46.030000000 2.230000000 535.88
46.030000000 2.250000000 539.97
46.030000000 2.270000000 537.07
46.030000000 2.290000000 515.03
46.030000000 2.310000000 490.24
46.030000000 2.330000000 488.95
46.030000000 2.350000000 524.46
46.030000000 2.370000000 546.66
46.030000000 2.390000000 588.39
46.030000000 2.410000000 629.15
46.030000000 2.430000000 644.49
46.030000000 2.450000000 638.62
46.030000000 2.470000000 600.01
46.030000000 2.490000000 569.41
46.030000000 2.510000000 547.07
46.030000000 2.530000000 529.16
46.030000000 2.550000000 578.20
46.030000000 2.570000000 562.82
46.030000000 2.590000000 577.50
46.030000000 2.610000000 588.95
46.030000000 2.630000000 636.40
46.030000000 2.650000000 687.42
46.030000000 2.670000000 735.71
46.030000000 2.690000000 738.13
46.030000000 2.710000000 695.95
46.030000000 2.730000000 690.21
46.030000000 2.750000000 650.06
46.030000000 2.770000000 631.58
46.030000000 2.790000000 645.00
46.030000000 2.810000000 694.29
46.030000000 2.830000000 687.50
46.030000000 2.850000000 677.08
46.030000000 2.870000000 627.16
46.030000000 2.890000000 503.97
46.030000000 2.910000000 486.67
46.030000000 2.930000000 617.45
46.030000000 2.950000000 659.33
46.030000000 2.970000000 630.62
46.030000000 2.990000000 602.65
46.010000000 2.010000000 565.85
46.010000000 2.030000000 597.24
46.010000000 2.050000000 565.08
46.010000000 2.070000000 532.43
46.010000000 2.090000000 500.62
46.010000000 2.110000000 493.39
46.010000000 2.130000000 449.62
46.010000000 2.150000000 482.94
46.010000000 2.170000000 539.22
46.010000000 2.190000000 587.46
46.010000000 2.210000000 595.12
46.010000000 2.230000000 561.44
46.010000000 2.250000000 595.83
46.010000000 2.270000000 592.39
46.010000000 2.290000000 538.91
46.010000000 2.310000000 538.16
46.010000000 2.330000000 501.14
46.010000000 2.350000000 541.03
46.010000000 2.370000000 583.72
46.010000000 2.390000000 603.09
46.010000000 2.410000000 636.47
46.010000000 2.430000000 624.65
46.010000000 2.450000000 587.15
46.010000000 2.470000000 578.52
46.010000000 2.490000000 584.13
46.010000000 2.510000000 586.61
46.010000000 2.530000000 561.51
46.010000000 2.550000000 599.06
46.010000000 2.570000000 622.72
46.010000000 2.590000000 629.38
46.010000000 2.610000000 666.35
46.010000000 2.630000000 683.84
46.010000000 2.650000000 676.88
46.010000000 2.670000000 704.84
46.010000000 2.690000000 713.52
46.010000000 2.710000000 693.87
46.010000000 2.730000000 670.64
46.010000000 2.750000000 635.75
46.010000000 2.770000000 621.72
46.010000000 2.790000000 649.66
46.010000000 2.810000000 671.13
46.010000000 2.830000000 672.02
46.010000000 2.850000000 686.61
46.010000000 2.870000000 637.37
46.010000000 2.890000000 512.82
46.010000000 2.910000000 572.11
46.010000000 2.930000000 637.21
46.010000000 2.950000000 651.89
46.010000000 2.970000000 623.88
46.010000000 2.990000000 572.42
46.990000000 3.010000000 205.02
46.990000000 3.030000000 205.41
46.990000000 3.050000000 173.77
46.990000000 3.070000000 172.35
46.990000000 3.090000000 201.72
46.990000000 3.110000000 192.88
46.990000000 3.130000000 202.95
46.990000000 3.150000000 192.80
46.990000000 3.170000000 177.21
46.990000000 3.190000000 175.72
46.990000000 3.210000000 186.98
46.990000000 3.230000000 209.38
46.990000000 3.250000000 220.35
46.990000000 3.270000000 236.69
46.990000000 3.290000000 257.99
46.990000000 3.310000000 276.67
46.990000000 3.330000000 270.80
46.990000000 3.350000000 227.20
46.990000000 3.370000000 230.05
46.990000000 3.390000000 260.23
46.990000000 3.410000000 319.92
46.990000000 3.430000000 345.16
46.990000000 3.450000000 274.03
46.990000000 3.470000000 263.90
46.990000000 3.490000000 256.96
46.990000000 3.510000000 258.08
46.990000000 3.530000000 258.38
46.990000000 3.550000000 241.26
46.990000000 3.570000000 236.72
46.990000000 3.590000000 251.88
46.990000000 3.610000000 283.02
46.990000000 3.630000000 279.85
46.990000000 3.650000000 254.27
46.990000000 3.670000000 246.62
46.990000000 3.690000000 226.93
46.990000000 3.710000000 218.81
46.990000000 3.730000000 217.18
46.990000000 3.750000000 244.35
46.990000000 3.770000000 258.26
46.990000000 3.790000000 248.32
46.990000000 3.810000000 240.70
46.990000000 3.830000000 283.11
46.990000000 3.850000000 320.55
46.990000000 3.870000000 380.27
46.990000000 3.890000000 424.09
46.990000000 3.910000000 441.48
46.990000000 3.930000000 525.18
46.990000000 3.950000000 635.76
46.990000000 3.970000000 662.20
46.990000000 3.990000000 638.18
46.970000000 3.010000000 208.59
46.970000000 3.030000000 202.27
46.970000000 3.050000000 180.57
46.970000000 3.070000000 176.63
46.970000000 3.090000000 198.07
46.970000000 3.110000000 187.68
46.970000000 3.130000000 186.31
46.970000000 3.150000000 171.66
46.970000000 3.170000000 171.57
46.970000000 3.190000000 173.03
46.970000000 3.210000000 176.63
46.970000000 3.230000000 189.61
46.970000000 3.250000000 206.62
46.970000000 3.270000000 225.50
46.970000000 3.290000000 243.69
46.970000000 3.310000000 262.71
46.970000000 3.330000000 261.86
46.970000000 3.350000000 219.10
46.970000000 3.370000000 255.82
46.970000000 3.390000000 274.15
46.970000000 3.410000000 272.46
46.970000000 3.430000000 287.56
46.970000000 3.450000000 265.57
46.970000000 3.470000000 254.05
46.970000000 3.490000000 236.33
46.970000000 3.510000000 239.71
46.970000000 3.530000000 227.75
46.970000000 3.550000000 233.79
46.970000000 3.570000000 228.12
46.970000000 3.590000000 227.25
46.970000000 3.610000000 247.12
46.970000000 3.630000000 253.37
46.970000000 3.650000000 249.80
46.970000000 3.670000000 262.64
46.970000000 3.690000000 256.53
46.970000000 3.710000000 259.36
46.970000000 3.730000000 235.44
46.970000000 3.750000000 220.57
46.970000000 3.770000000 241.24
46.970000000 3.790000000 240.89
46.970000000 3.810000000 266.33
46.970000000 3.830000000 290.80
46.970000000 3.850000000 298.67
46.970000000 3.870000000 310.19
46.970000000 3.890000000 345.83
46.970000000 3.910000000 389.05
46.970000000 3.930000000 455.34
46.970000000 3.950000000 566.08
46.970000000 3.970000000 725.38
46.970000000 3.990000000 703.22
46.950000000 3.010000000 210.60
46.950000000 3.030000000 208.01
46.950000000 3.050000000 192.48
46.950000000 3.070000000 170.01
46.950000000 3.090000000 174.03
46.950000000 3.110000000 173.96
46.950000000 3.130000000 177.55
46.950000000 3.150000000 186.18
46.950000000 3.170000000 187.25
46.950000000 3.190000000 202.28
46.950000000 3.210000000 173.86
46.950000000 3.230000000 176.79
46.950000000 3.250000000 203.90
46.950000000 3.270000000 215.15
46.950000000 3.290000000 211.26
46.950000000 3.310000000 215.23
46.950000000 3.330000000 220.15
46.950000000 3.350000000 242.53
46.950000000 3.370000000 284.44
46.950000000 3.390000000 281.02
46.950000000 3.410000000 273.81
46.950000000 3.430000000 254.57
46.950000000 3.450000000 245.58
46.950000000 3.470000000 238.75
46.950000000 3.490000000 251.32
46.950000000 3.510000000 220.42
46.950000000 3.530000000 215.99
46.950000000 3.550000000 230.33
46.950000000 3.570000000 261.46
46.950000000 3.590000000 265.73
46.950000000 3.610000000 233.01
46.950000000 3.630000000 224.15
46.950000000 3.650000000 228.77
46.950000000 3.670000000 246.52
46.950000000 3.690000000 241.40
46.950000000 3.710000000 240.22
46.950000000 3.730000000 222.12
46.950000000 3.750000000 213.28
46.950000000 3.770000000 237.61
46.950000000 3.790000000 258.12
46.950000000 3.810000000 268.81
46.950000000 3.830000000 258.88
46.950000000 3.850000000 288.07
46.950000000 3.870000000 337.34
46.950000000 3.890000000 337.52
46.950000000 3.910000000 374.54
46.950000000 3.930000000 383.53
46.950000000 3.950000000 434.78
46.950000000 3.970000000 511.45
46.950000000 3.990000000 651.13
46.930000000 3.010000000 201.77
46.930000000 3.030000000 197.32
46.930000000 3.050000000 191.56
46.930000000 3.070000000 184.40
46.930000000 3.090000000 215.55
46.930000000 3.110000000 225.25
46.930000000 3.130000000 225.69
46.930000000 3.150000000 225.29
46.930000000 3.170000000 243.17
46.930000000 3.190000000 231.00
46.930000000 3.210000000 195.28
46.930000000 3.230000000 180.64
46.930000000 3.250000000 177.07
46.930000000 3.270000000 194.20
46.930000000 3.290000000 219.52
46.930000000 3.310000000 238.98
46.930000000 3.330000000 243.04
46.930000000 3.350000000 241.93
46.930000000 3.370000000 261.35
46.930000000 3.390000000 258.08
46.930000000 3.410000000 260.39
46.930000000 3.430000000 264.78
46.930000000 3.450000000 241.59
46.930000000 3.470000000 233.95
46.930000000 3.490000000 227.40
46.930000000 3.510000000 240.98
46.930000000 3.530000000 224.57
46.930000000 3.550000000 229.22
46.930000000 3.570000000 257.74
46.930000000 3.590000000 252.69
46.930000000 3.610000000 250.54
46.930000000 3.630000000 233.26
46.930000000 3.650000000 217.72
46.930000000 3.670000000 229.46
46.930000000 3.690000000 227.05
46.930000000 3.710000000 246.91
46.930000000 3.730000000 207.89
46.930000000 3.750000000 219.96
46.930000000 3.770000000 244.36
46.930000000 3.790000000 234.94
46.930000000 3.810000000 245.06
46.930000000 3.830000000 264.56
46.930000000 3.850000000 293.90
46.930000000 3.870000000 321.70
46.930000000 3.890000000 383.35
46.930000000 3.910000000 483.26
46.930000000 3.930000000 442.58
46.930000000 3.950000000 442.40
46.930000000 3.970000000 502.06
46.930000000 3.990000000 569.47
46.910000000 3.010000000 204.40
46.910000000 3.030000000 207.77
46.910000000 3.050000000 185.98
46.910000000 3.070000000 187.64
46.910000000 3.090000000 215.66
46.910000000 3.110000000 212.35
46.910000000 3.130000000 222.97
46.910000000 3.150000000 237.17
46.910000000 3.170000000 237.69
46.910000000 3.190000000 216.34
46.910000000 3.210000000 211.95
46.910000000 3.230000000 201.93
46.910000000 3.250000000 180.36
46.910000000 3.270000000 182.71
46.910000000 3.290000000 195.62
46.910000000 3.310000000 222.20
46.910000000 3.330000000 251.08
46.910000000 3.350000000 268.98
46.910000000 3.370000000 242.42
46.910000000 3.390000000 240.00
46.910000000 3.410000000 267.48
46.910000000 3.430000000 274.38
46.910000000 3.450000000 258.91
46.910000000 3.470000000 252.42
46.910000000 3.490000000 232.48
46.910000000 3.510000000 222.48
46.910000000 3.530000000 226.74
46.910000000 3.550000000 255.31
46.910000000 3.570000000 246.08
46.910000000 3.590000000 229.14
46.910000000 3.610000000 242.72
46.910000000 3.630000000 235.10
46.910000000 3.650000000 209.93
46.910000000 3.670000000 242.65
46.910000000 3.690000000 230.39
46.910000000 3.710000000 233.19
46.910000000 3.730000000 204.81
46.910000000 3.750000000 223.14
46.910000000 3.770000000 232.98
46.910000000 3.790000000 243.44
46.910000000 3.810000000 241.73
46.910000000 3.830000000 261.85
46.910000000 3.850000000 298.71
46.910000000 3.870000000 343.17
46.910000000 3.890000000 414.72
46.910000000 3.910000000 480.16
46.910000000 3.930000000 480.05
46.910000000 3.950000000 441.24
46.910000000 3.970000000 489.65
46.910000000 3.990000000 557.52
46.890000000 3.010000000 211.84
46.890000000 3.030000000 206.62
46.890000000 3.050000000 183.30
46.890000000 3.070000000 175.25
46.890000000 3.090000000 178.49
46.890000000 3.110000000 182.74
46.890000000 3.130000000 196.38
46.890000000 3.150000000 210.18
46.890000000 3.170000000 207.79
46.890000000 3.190000000 218.71
46.890000000 3.210000000 214.24
46.890000000 3.230000000 199.36
46.890000000 3.250000000 181.11
46.890000000 3.270000000 179.01
46.890000000 3.290000000 187.01
46.890000000 3.310000000 235.23
46.890000000 3.330000000 251.57
46.890000000 3.350000000 233.11
46.890000000 3.370000000 236.91
46.890000000 3.390000000 259.26
46.890000000 3.410000000 246.38
46.890000000 3.430000000 243.91
46.890000000 3.450000000 238.56
46.890000000 3.470000000 254.77
46.890000000 3.490000000 249.81
46.890000000 3.510000000 228.30
46.890000000 3.530000000 214.82
46.890000000 3.550000000 245.70
46.890000000 3.570000000 231.29
46.890000000 3.590000000 218.79
46.890000000 3.610000000 242.93
46.890000000 3.630000000 224.71
46.890000000 3.650000000 211.86
46.890000000 3.670000000 223.39
46.890000000 3.690000000 211.32
46.890000000 3.710000000 213.79
46.890000000 3.730000000 223.93
46.890000000 3.750000000 220.05
46.890000000 3.770000000 231.87
46.890000000 3.790000000 231.74
46.890000000 3.810000000 240.62
46.890000000 3.830000000 273.76
46.890000000 3.850000000 300.90
46.890000000 3.870000000 403.92
46.890000000 3.890000000 456.45
46.890000000 3.910000000 390.21
46.890000000 3.930000000 440.84
46.890000000 3.950000000 367.22
46.890000000 3.970000000 409.30
46.890000000 3.990000000 460.97
46.870000000 3.010000000 216.44
46.870000000 3.030000000 207.64
46.870000000 3.050000000 185.41
46.870000000 3.070000000 175.07
46.870000000 3.090000000 177.05
46.870000000 3.110000000 185.47
46.870000000 3.130000000 189.29
46.870000000 3.150000000 192.48
46.870000000 3.170000000 211.56
46.870000000 3.190000000 222.61
46.870000000 3.210000000 208.82
46.870000000 3.230000000 197.85
46.870000000 3.250000000 190.94
46.870000000 3.270000000 186.28
46.870000000 3.290000000 180.96
46.870000000 3.310000000 198.15
46.870000000 3.330000000 218.54
46.870000000 3.350000000 210.03
46.870000000 3.370000000 242.76
46.870000000 3.390000000 249.86
46.870000000 3.410000000 238.69
46.870000000 3.430000000 222.88
46.870000000 3.450000000 241.35
46.870000000 3.470000000 244.61
46.870000000 3.490000000 228.88
46.870000000 3.510000000 242.51
46.870000000 3.530000000 229.40
46.870000000 3.550000000 218.36
46.870000000 3.570000000 236.94
46.870000000 3.590000000 214.27
46.870000000 3.610000000 216.19
46.870000000 3.630000000 201.77
46.870000000 3.650000000 206.32
46.870000000 3.670000000 202.15
46.870000000 3.690000000 214.30
46.870000000 3.710000000 226.00
46.870000000 3.730000000 243.85
46.870000000 3.750000000 238.63
46.870000000 3.770000000 226.73
46.870000000 3.790000000 247.13
46.870000000 3.810000000 256.48
46.870000000 3.830000000 256.16
46.870000000 3.850000000 321.70
46.870000000 3.870000000 371.87
46.870000000 3.890000000 353.58
46.870000000 3.910000000 324.64
46.870000000 3.930000000 355.94
46.870000000 3.950000000 318.00
46.870000000 3.970000000 360.72
46.870000000 3.990000000 362.56
46.850000000 3.010000000 206.45
46.850000000 3.030000000 201.94
46.850000000 3.050000000 182.11
46.850000000 3.070000000 176.69
46.850000000 3.090000000 178.63
46.850000000 3.110000000 182.12
46.850000000 3.130000000 195.64
46.850000000 3.150000000 222.03
46.850000000 3.170000000 236.93
46.850000000 3.190000000 214.51
46.850000000 3.210000000 202.62
46.850000000 3.230000000 207.04
46.850000000 3.250000000 217.02
46.850000000 3.270000000 207.21
46.850000000 3.290000000 201.63
46.850000000 3.310000000 185.98
46.850000000 3.330000000 183.03
46.850000000 3.350000000 208.56
46.850000000 3.370000000 217.51
46.850000000 3.390000000 218.29
46.850000000 3.410000000 219.67
46.850000000 3.430000000 222.17
46.850000000 3.450000000 230.49
46.850000000 3.470000000 227.11
46.850000000 3.490000000 214.64
46.850000000 3.510000000 222.86
46.850000000 3.530000000 220.94
46.850000000 3.550000000 202.57
46.850000000 3.570000000 203.68
46.850000000 3.590000000 200.23
46.850000000 3.610000000 207.34
46.850000000 3.630000000 208.29
46.850000000 3.650000000 215.11
46.850000000 3.670000000 208.12
46.850000000 3.690000000 214.16
46.850000000 3.710000000 222.28
46.850000000 3.730000000 234.98
46.850000000 3.750000000 247.15
46.850000000 3.770000000 248.28
46.850000000 3.790000000 243.70
46.850000000 3.810000000 253.11
46.850000000 3.830000000 268.39
46.850000000 3.850000000 280.28
46.850000000 3.870000000 279.54
46.850000000 3.890000000 287.66
46.850000000 3.910000000 293.84
46.850000000 3.930000000 311.88
46.850000000 3.950000000 293.48
46.850000000 3.970000000 308.82
46.850000000 3.990000000 325.49
46.830000000 3.010000000 210.26
46.830000000 3.030000000 202.93
46.830000000 3.050000000 182.31
46.830000000 3.070000000 179.41
46.830000000 3.090000000 183.38
46.830000000 3.110000000 190.16
46.830000000 3.130000000 216.85
46.830000000 3.150000000 225.34
46.830000000 3.170000000 231.85
46.830000000 3.190000000 206.93
46.830000000 3.210000000 213.72
46.830000000 3.230000000 208.10
46.830000000 3.250000000 223.72
46.830000000 3.270000000 211.91
46.830000000 3.290000000 232.99
46.830000000 3.310000000 208.98
46.830000000 3.330000000 195.01
46.830000000 3.350000000 183.10
46.830000000 3.370000000 184.35
46.830000000 3.390000000 189.78
46.830000000 3.410000000 186.92
46.830000000 3.430000000 188.00
46.830000000 3.450000000 190.44
46.830000000 3.470000000 193.17
46.830000000 3.490000000 197.22
46.830000000 3.510000000 200.75
46.830000000 3.530000000 208.73
46.830000000 3.550000000 210.37
46.830000000 3.570000000 220.40
46.830000000 3.590000000 213.82
46.830000000 3.610000000 224.42
46.830000000 3.630000000 225.64
46.830000000 3.650000000 229.48
46.830000000 3.670000000 231.33
46.830000000 3.690000000 218.33
46.830000000 3.710000000 211.69
46.830000000 3.730000000 210.55
46.830000000 3.750000000 226.92
46.830000000 3.770000000 231.63
46.830000000 3.790000000 247.38
46.830000000 3.810000000 236.33
46.830000000 3.830000000 270.54
46.830000000 3.850000000 293.82
46.830000000 3.870000000 250.78
46.830000000 3.890000000 266.37
46.830000000 3.910000000 293.74
46.830000000 3.930000000 316.92
46.830000000 3.950000000 276.55
46.830000000 3.970000000 312.10
46.830000000 3.990000000 333.52
46.810000000 3.010000000 210.65
46.810000000 3.030000000 193.80
46.810000000 3.050000000 180.42
46.810000000 3.070000000 183.29
46.810000000 3.090000000 189.15
46.810000000 3.110000000 206.00
46.810000000 3.130000000 238.31
46.810000000 3.150000000 227.93
46.810000000 3.170000000 224.81
46.810000000 3.190000000 208.49
46.810000000 3.210000000 214.92
46.810000000 3.230000000 229.24
46.810000000 3.250000000 212.94
46.810000000 3.270000000 218.27
46.810000000 3.290000000 238.71
46.810000000 3.310000000 236.25
46.810000000 3.330000000 233.53
46.810000000 3.350000000 212.57
46.810000000 3.370000000 192.78
46.810000000 3.390000000 197.95
46.810000000 3.410000000 205.65
46.810000000 3.430000000 209.17
46.810000000 3.450000000 203.27
46.810000000 3.470000000 196.74
46.810000000 3.490000000 195.47
46.810000000 3.510000000 201.80
46.810000000 3.530000000 213.67
46.810000000 3.550000000 225.46
46.810000000 3.570000000 227.49
46.810000000 3.590000000 226.68
46.810000000 3.610000000 219.83
46.810000000 3.630000000 222.99
46.810000000 3.650000000 222.75
46.810000000 3.670000000 231.74
46.810000000 3.690000000 242.03
46.810000000 3.710000000 238.71
46.810000000 3.730000000 236.18
46.810000000 3.750000000 227.57
46.810000000 3.770000000 222.09
46.810000000 3.790000000 225.50
46.810000000 3.810000000 235.47
46.810000000 3.830000000 289.24
46.810000000 3.850000000 295.92
46.810000000 3.870000000 288.95
46.810000000 3.890000000 266.03
46.810000000 3.910000000 267.02
46.810000000 3.930000000 276.81
46.810000000 3.950000000 279.17
46.810000000 3.970000000 293.17
46.810000000 3.990000000 320.02
46.790000000 3.010000000 211.24
46.790000000 3.030000000 190.81
46.790000000 3.050000000 184.31
46.790000000 3.070000000 191.62
46.790000000 3.090000000 199.21
46.790000000 3.110000000 213.47
46.790000000 3.130000000 232.49
46.790000000 3.150000000 230.95
46.790000000 3.170000000 235.00
46.790000000 3.190000000 234.98
46.790000000 3.210000000 239.44
46.790000000 3.230000000 224.02
46.790000000 3.250000000 223.23
46.790000000 3.270000000 241.05
46.790000000 3.290000000 253.40
46.790000000 3.310000000 254.23
46.790000000 3.330000000 237.11
46.790000000 3.350000000 220.30
46.790000000 3.370000000 205.75
46.790000000 3.390000000 210.98
46.790000000 3.410000000 211.66
46.790000000 3.430000000 209.17
46.790000000 3.450000000 225.81
46.790000000 3.470000000 223.10
46.790000000 3.490000000 208.13
46.790000000 3.510000000 197.26
46.790000000 3.530000000 192.48
46.790000000 3.550000000 191.75
46.790000000 3.570000000 192.57
46.790000000 3.590000000 203.63
46.790000000 3.610000000 215.81
46.790000000 3.630000000 236.28
46.790000000 3.650000000 239.11
46.790000000 3.670000000 236.55
46.790000000 3.690000000 234.42
46.790000000 3.710000000 235.86
46.790000000 3.730000000 254.42
46.790000000 3.750000000 254.45
46.790000000 3.770000000 251.56
46.790000000 3.790000000 242.58
46.790000000 3.810000000 246.56
46.790000000 3.830000000 269.41
46.790000000 3.850000000 276.29
46.790000000 3.870000000 300.75
46.790000000 3.890000000 319.61
46.790000000 3.910000000 300.55
46.790000000 3.930000000 337.01
46.790000000 3.950000000 314.61
46.790000000 3.970000000 274.38
46.790000000 3.990000000 285.12
46.770000000 3.010000000 215.95
46.770000000 3.030000000 198.45
46.770000000 3.050000000 198.20
46.770000000 3.070000000 225.79
46.770000000 3.090000000 239.46
46.770000000 3.110000000 246.61
46.770000000 3.130000000 221.30
46.770000000 3.150000000 225.87
46.770000000 3.170000000 236.20
46.770000000 3.190000000 243.06
46.770000000 3.210000000 240.21
46.770000000 3.230000000 234.92
46.770000000 3.250000000 250.93
46.770000000 3.270000000 255.29
46.770000000 3.290000000 260.17
46.770000000 3.310000000 253.51
46.770000000 3.330000000 241.85
46.770000000 3.350000000 227.45
46.770000000 3.370000000 205.20
46.770000000 3.390000000 217.89
46.770000000 3.410000000 212.85
46.770000000 3.430000000 228.20
46.770000000 3.450000000 208.99
46.770000000 3.470000000 221.04
46.770000000 3.490000000 226.35
46.770000000 3.510000000 217.31
46.770000000 3.530000000 207.73
46.770000000 3.550000000 197.56
46.770000000 3.570000000 194.73
46.770000000 3.590000000 195.13
46.770000000 3.610000000 195.41
46.770000000 3.630000000 208.98
46.770000000 3.650000000 227.89
46.770000000 3.670000000 227.60
46.770000000 3.690000000 234.52
46.770000000 3.710000000 245.11
46.770000000 3.730000000 238.80
46.770000000 3.750000000 237.24
46.770000000 3.770000000 234.44
46.770000000 3.790000000 239.83
46.770000000 3.810000000 257.70
46.770000000 3.830000000 277.06
46.770000000 3.850000000 283.28
46.770000000 3.870000000 310.29
46.770000000 3.890000000 367.88
46.770000000 3.910000000 337.63
46.770000000 3.930000000 325.69
46.770000000 3.950000000 339.90
46.770000000 3.970000000 316.06
46.770000000 3.990000000 305.56
46.750000000 3.010000000 213.35
46.750000000 3.030000000 199.36
46.750000000 3.050000000 194.45
46.750000000 3.070000000 202.41
46.750000000 3.090000000 214.70
46.750000000 3.110000000 214.42
46.750000000 3.130000000 205.74
46.750000000 3.150000000 218.04
46.750000000 3.170000000 218.13
46.750000000 3.190000000 218.68
46.750000000 3.210000000 232.45
46.750000000 3.230000000 242.96
46.750000000 3.250000000 244.23
46.750000000 3.270000000 247.46
46.750000000 3.290000000 254.97
46.750000000 3.310000000 250.76
46.750000000 3.330000000 232.87
46.750000000 3.350000000 216.46
46.750000000 3.370000000 224.44
46.750000000 3.390000000 228.85
46.750000000 3.410000000 219.84
46.750000000 3.430000000 222.17
46.750000000 3.450000000 230.23
46.750000000 3.470000000 215.93
46.750000000 3.490000000 221.82
46.750000000 3.510000000 230.44
46.750000000 3.530000000 220.71
46.750000000 3.550000000 210.14
46.750000000 3.570000000 202.33
46.750000000 3.590000000 197.02
46.750000000 3.610000000 196.12
46.750000000 3.630000000 197.29
46.750000000 3.650000000 210.59
46.750000000 3.670000000 227.49
46.750000000 3.690000000 219.55
46.750000000 3.710000000 224.77
46.750000000 3.730000000 225.82
46.750000000 3.750000000 227.88
46.750000000 3.770000000 234.87
46.750000000 3.790000000 245.74
46.750000000 3.810000000 255.97
46.750000000 3.830000000 257.92
46.750000000 3.850000000 275.27
46.750000000 3.870000000 313.86
46.750000000 3.890000000 355.97
46.750000000 3.910000000 304.69
46.750000000 3.930000000 292.58
46.750000000 3.950000000 301.62
46.750000000 3.970000000 324.38
46.750000000 3.990000000 350.21
46.730000000 3.010000000 204.77
46.730000000 3.030000000 213.09
46.730000000 3.050000000 221.91
46.730000000 3.070000000 214.33
46.730000000 3.090000000 203.29
46.730000000 3.110000000 199.19
46.730000000 3.130000000 192.93
46.730000000 3.150000000 195.88
46.730000000 3.170000000 202.56
46.730000000 3.190000000 215.01
46.730000000 3.210000000 223.31
46.730000000 3.230000000 226.84
46.730000000 3.250000000 233.57
46.730000000 3.270000000 241.86
46.730000000 3.290000000 251.66
46.730000000 3.310000000 242.95
46.730000000 3.330000000 228.64
46.730000000 3.350000000 222.17
46.730000000 3.370000000 241.00
46.730000000 3.390000000 244.17
46.730000000 3.410000000 228.81
46.730000000 3.430000000 216.16
46.730000000 3.450000000 228.94
46.730000000 3.470000000 221.76
46.730000000 3.490000000 214.56
46.730000000 3.510000000 223.95
46.730000000 3.530000000 225.91
46.730000000 3.550000000 215.24
46.730000000 3.570000000 210.00
46.730000000 3.590000000 205.38
46.730000000 3.610000000 199.74
46.730000000 3.630000000 198.31
46.730000000 3.650000000 197.55
46.730000000 3.670000000 202.16
46.730000000 3.690000000 219.08
46.730000000 3.710000000 230.85
46.730000000 3.730000000 246.41
46.730000000 3.750000000 237.41
46.730000000 3.770000000 227.98
46.730000000 3.790000000 229.60
46.730000000 3.810000000 235.59
46.730000000 3.830000000 274.18
46.730000000 3.850000000 278.34
46.730000000 3.870000000 306.60
46.730000000 3.890000000 295.00
46.730000000 3.910000000 287.03
46.730000000 3.930000000 303.16
46.730000000 3.950000000 300.09
46.730000000 3.970000000 325.96
46.730000000 3.990000000 359.02
46.710000000 3.010000000 214.78
46.710000000 3.030000000 218.11
46.710000000 3.050000000 227.91
46.710000000 3.070000000 236.50
46.710000000 3.090000000 224.54
46.710000000 3.110000000 226.37
46.710000000 3.130000000 211.84
46.710000000 3.150000000 195.37
46.710000000 3.170000000 194.74
46.710000000 3.190000000 202.15
46.710000000 3.210000000 213.07
46.710000000 3.230000000 225.78
46.710000000 3.250000000 238.67
46.710000000 3.270000000 249.24
46.710000000 3.290000000 251.62
46.710000000 3.310000000 246.26
46.710000000 3.330000000 235.31
46.710000000 3.350000000 229.65
46.710000000 3.370000000 242.75
46.710000000 3.390000000 243.83
46.710000000 3.410000000 228.61
46.710000000 3.430000000 217.32
46.710000000 3.450000000 229.65
46.710000000 3.470000000 225.03
46.710000000 3.490000000 220.42
46.710000000 3.510000000 216.42
46.710000000 3.530000000 223.22
46.710000000 3.550000000 225.95
46.710000000 3.570000000 217.00
46.710000000 3.590000000 215.75
46.710000000 3.610000000 208.62
46.710000000 3.630000000 200.75
46.710000000 3.650000000 199.01
46.710000000 3.670000000 200.42
46.710000000 3.690000000 226.80
46.710000000 3.710000000 238.75
46.710000000 3.730000000 245.74
46.710000000 3.750000000 249.59
46.710000000 3.770000000 246.00
46.710000000 3.790000000 254.16
46.710000000 3.810000000 266.09
46.710000000 3.830000000 288.59
46.710000000 3.850000000 309.04
46.710000000 3.870000000 291.70
46.710000000 3.890000000 305.29
46.710000000 3.910000000 326.90
46.710000000 3.930000000 332.41
46.710000000 3.950000000 320.29
46.710000000 3.970000000 320.11
46.710000000 3.990000000 334.59
46.690000000 3.010000000 225.08
46.690000000 3.030000000 240.40
46.690000000 3.050000000 254.62
46.690000000 3.070000000 258.28
46.690000000 3.090000000 239.98
46.690000000 3.110000000 237.43
46.690000000 3.130000000 226.33
46.690000000 3.150000000 207.22
46.690000000 3.170000000 197.87
46.690000000 3.190000000 196.71
46.690000000 3.210000000 200.40
46.690000000 3.230000000 213.53
46.690000000 3.250000000 226.04
46.690000000 3.270000000 233.09
46.690000000 3.290000000 245.76
46.690000000 3.310000000 250.56
46.690000000 3.330000000 245.88
46.690000000 3.350000000 251.76
46.690000000 3.370000000 245.33
46.690000000 3.390000000 231.94
46.690000000 3.410000000 223.76
46.690000000 3.430000000 219.00
46.690000000 3.450000000 229.80
46.690000000 3.470000000 218.49
46.690000000 3.490000000 216.45
46.690000000 3.510000000 220.84
46.690000000 3.530000000 214.49
46.690000000 3.550000000 228.01
46.690000000 3.570000000 225.49
46.690000000 3.590000000 218.51
46.690000000 3.610000000 214.70
46.690000000 3.630000000 203.60
46.690000000 3.650000000 201.32
46.690000000 3.670000000 200.08
46.690000000 3.690000000 208.71
46.690000000 3.710000000 237.22
46.690000000 3.730000000 246.25
46.690000000 3.750000000 248.83
46.690000000 3.770000000 256.29
46.690000000 3.790000000 266.67
46.690000000 3.810000000 266.12
46.690000000 3.830000000 257.89
46.690000000 3.850000000 275.28
46.690000000 3.870000000 303.07
46.690000000 3.890000000 332.08
46.690000000 3.910000000 332.64
46.690000000 3.930000000 360.47
46.690000000 3.950000000 348.20
46.690000000 3.970000000 330.40
46.690000000 3.990000000 344.50
46.670000000 3.010000000 230.49
46.670000000 3.030000000 252.86
46.670000000 3.050000000 281.13
46.670000000 3.070000000 283.62
46.670000000 3.090000000 251.37
46.670000000 3.110000000 230.41
46.670000000 3.130000000 213.36
46.670000000 3.150000000 231.88
46.670000000 3.170000000 233.43
46.670000000 3.190000000 207.44
46.670000000 3.210000000 197.46
46.670000000 3.230000000 202.31
46.670000000 3.250000000 216.71
46.670000000 3.270000000 227.33
46.670000000 3.290000000 230.38
46.670000000 3.310000000 244.14
46.670000000 3.330000000 260.45
46.670000000 3.350000000 257.81
46.670000000 3.370000000 246.78
46.670000000 3.390000000 241.74
46.670000000 3.410000000 227.88
46.670000000 3.430000000 228.84
46.670000000 3.450000000 229.94
46.670000000 3.470000000 218.63
46.670000000 3.490000000 229.34
46.670000000 3.510000000 227.73
46.670000000 3.530000000 221.64
46.670000000 3.550000000 224.87
46.670000000 3.570000000 237.25
46.670000000 3.590000000 228.39
46.670000000 3.610000000 219.66
46.670000000 3.630000000 209.40
46.670000000 3.650000000 203.26
46.670000000 3.670000000 201.30
46.670000000 3.690000000 201.65
46.670000000 3.710000000 229.76
46.670000000 3.730000000 251.17
46.670000000 3.750000000 251.08
46.670000000 3.770000000 246.63
46.670000000 3.790000000 240.76
46.670000000 3.810000000 246.19
46.670000000 3.830000000 284.83
46.670000000 3.850000000 289.11
46.670000000 3.870000000 295.00
46.670000000 3.890000000 292.19
46.670000000 3.910000000 301.29
46.670000000 3.930000000 314.92
46.670000000 3.950000000 343.43
46.670000000 3.970000000 365.99
46.670000000 3.990000000 389.53
46.650000000 3.010000000 245.30
46.650000000 3.030000000 272.18
46.650000000 3.050000000 286.89
46.650000000 3.070000000 255.71
46.650000000 3.090000000 240.09
46.650000000 3.110000000 229.65
46.650000000 3.130000000 219.85
46.650000000 3.150000000 214.48
46.650000000 3.170000000 244.82
46.650000000 3.190000000 238.67
46.650000000 3.210000000 212.55
46.650000000 3.230000000 199.55
46.650000000 3.250000000 199.98
46.650000000 3.270000000 213.68
46.650000000 3.290000000 229.48
46.650000000 3.310000000 236.84
46.650000000 3.330000000 244.11
46.650000000 3.350000000 257.72
46.650000000 3.370000000 258.68
46.650000000 3.390000000 246.76
46.650000000 3.410000000 233.88
46.650000000 3.430000000 244.29
46.650000000 3.450000000 237.29
46.650000000 3.470000000 226.28
46.650000000 3.490000000 237.38
46.650000000 3.510000000 236.89
46.650000000 3.530000000 229.45
46.650000000 3.550000000 221.29
46.650000000 3.570000000 247.97
46.650000000 3.590000000 239.74
46.650000000 3.610000000 231.49
46.650000000 3.630000000 226.75
46.650000000 3.650000000 208.97
46.650000000 3.670000000 202.77
46.650000000 3.690000000 202.95
46.650000000 3.710000000 219.38
46.650000000 3.730000000 239.00
46.650000000 3.750000000 234.80
46.650000000 3.770000000 231.43
46.650000000 3.790000000 246.52
46.650000000 3.810000000 297.70
46.650000000 3.830000000 366.11
46.650000000 3.850000000 353.62
46.650000000 3.870000000 319.72
46.650000000 3.890000000 328.02
46.650000000 3.910000000 364.95
46.650000000 3.930000000 321.42
46.650000000 3.950000000 337.69
46.650000000 3.970000000 362.06
46.650000000 3.990000000 323.50
46.630000000 3.010000000 264.94
46.630000000 3.030000000 294.68
46.630000000 3.050000000 269.67
46.630000000 3.070000000 249.48
46.630000000 3.090000000 239.38
46.630000000 3.110000000 240.56
46.630000000 3.130000000 227.46
46.630000000 3.150000000 218.58
46.630000000 3.170000000 250.26
46.630000000 3.190000000 262.97
46.630000000 3.210000000 244.47
46.630000000 3.230000000 222.41
46.630000000 3.250000000 211.22
46.630000000 3.270000000 201.52
46.630000000 3.290000000 217.56
46.630000000 3.310000000 226.37
46.630000000 3.330000000 236.76
46.630000000 3.350000000 246.40
46.630000000 3.370000000 250.64
46.630000000 3.390000000 249.35
46.630000000 3.410000000 246.18
46.630000000 3.430000000 247.05
46.630000000 3.450000000 236.75
46.630000000 3.470000000 228.57
46.630000000 3.490000000 245.34
46.630000000 3.510000000 236.70
46.630000000 3.530000000 228.96
46.630000000 3.550000000 221.74
46.630000000 3.570000000 236.20
46.630000000 3.590000000 249.19
46.630000000 3.610000000 241.96
46.630000000 3.630000000 230.55
46.630000000 3.650000000 224.48
46.630000000 3.670000000 205.36
46.630000000 3.690000000 204.92
46.630000000 3.710000000 205.19
46.630000000 3.730000000 214.45
46.630000000 3.750000000 233.82
46.630000000 3.770000000 252.89
46.630000000 3.790000000 278.36
46.630000000 3.810000000 303.37
46.630000000 3.830000000 322.33
46.630000000 3.850000000 313.94
46.630000000 3.870000000 316.43
46.630000000 3.890000000 329.20
46.630000000 3.910000000 344.70
46.630000000 3.930000000 351.60
46.630000000 3.950000000 353.20
46.630000000 3.970000000 362.75
46.630000000 3.990000000 331.80
46.610000000 3.010000000 294.27
46.610000000 3.030000000 261.35
46.610000000 3.050000000 251.89
46.610000000 3.070000000 255.41
46.610000000 3.090000000 240.43
46.610000000 3.110000000 225.73
46.610000000 3.130000000 234.84
46.610000000 3.150000000 229.77
46.610000000 3.170000000 242.07
46.610000000 3.190000000 263.86
46.610000000 3.210000000 258.25
46.610000000 3.230000000 239.39
46.610000000 3.250000000 231.59
46.610000000 3.270000000 208.37
46.610000000 3.290000000 208.54
46.610000000 3.310000000 225.80
46.610000000 3.330000000 232.45
46.610000000 3.350000000 246.41
46.610000000 3.370000000 247.97
46.610000000 3.390000000 253.35
46.610000000 3.410000000 252.17
46.610000000 3.430000000 252.24
46.610000000 3.450000000 250.42
46.610000000 3.470000000 237.09
46.610000000 3.490000000 249.39
46.610000000 3.510000000 240.21
46.610000000 3.530000000 231.36
46.610000000 3.550000000 224.94
46.610000000 3.570000000 232.31
46.610000000 3.590000000 243.59
46.610000000 3.610000000 250.41
46.610000000 3.630000000 240.45
46.610000000 3.650000000 230.54
46.610000000 3.670000000 208.52
46.610000000 3.690000000 206.81
46.610000000 3.710000000 205.47
46.610000000 3.730000000 206.62
46.610000000 3.750000000 230.36
46.610000000 3.770000000 269.74
46.610000000 3.790000000 279.80
46.610000000 3.810000000 278.41
46.610000000 3.830000000 281.06
46.610000000 3.850000000 305.10
46.610000000 3.870000000 333.48
46.610000000 3.890000000 345.27
46.610000000 3.910000000 339.96
46.610000000 3.930000000 333.36
46.610000000 3.950000000 328.57
46.610000000 3.970000000 338.07
46.610000000 3.990000000 331.93
46.590000000 3.010000000 278.28
46.590000000 3.030000000 253.10
46.590000000 3.050000000 250.45
46.590000000 3.070000000 248.66
46.590000000 3.090000000 240.49
46.590000000 3.110000000 235.15
46.590000000 3.130000000 242.43
46.590000000 3.150000000 231.36
46.590000000 3.170000000 248.45
46.590000000 3.190000000 260.85
46.590000000 3.210000000 248.27
46.590000000 3.230000000 253.87
46.590000000 3.250000000 246.97
46.590000000 3.270000000 229.00
46.590000000 3.290000000 208.11
46.590000000 3.310000000 214.55
46.590000000 3.330000000 225.41
46.590000000 3.350000000 238.26
46.590000000 3.370000000 251.69
46.590000000 3.390000000 269.74
46.590000000 3.410000000 269.97
46.590000000 3.430000000 263.57
46.590000000 3.450000000 250.84
46.590000000 3.470000000 242.33
46.590000000 3.490000000 246.12
